# .PCD v0.7 - Point Cloud Data file format
VERSION 0.7
FIELDS x y z rgb
SIZE 4 4 4 4
TYPE F F F U
COUNT 1 1 1 1
WIDTH 321
HEIGHT 1
VIEWPOINT 0 0 0 1 0 0 0
POINTS 321
DATA ascii
0.97955841 -0.12040417 0.024307109 4287137928
1.0220754 -0.12639429 0.029913913 4285361517
1.071368 -0.13895985 0.030569434 4285295724
1.1301157 -0.1430939 0.029395344 4287335307
1.1780262 -0.12908815 0.028043443 4289045925
0.97585195 -0.077077463 0.029770218 4285361517
1.0044973 -0.088715345 0.030942071 4284900966
1.2285593 -0.079898044 0.027167978 4290493371
0.93363035 -0.024622442 0.023849143 4286874756
0.96717381 -0.027085545 0.030179031 4285032552
1.2458721 -0.026294544 0.029083723 4291282887
1.2454553 0.028424375 0.029148802 4290690750
1.232174 0.077323787 0.027558675 4288782753
1.0242856 0.12467682 0.027150877 4285295724
1.0725889 0.13797013 0.030151172 4284900966
1.1279252 0.14407049 0.029236745 4285164138
1.1765977 0.12916791 0.028745439 4287006342
1.22282 0.11823384 0.023211321 4287861651
1.0323215 -0.1589791 0.076327547 4283650899
1.0801046 -0.16001591 0.073918991 4283331662
1.1243601 -0.15503858 0.074266218 4285694834
0.98376584 -0.11653323 0.075988799 4283058762
1.0221978 -0.12631281 0.075395174 4284769380
1.0714185 -0.13881777 0.075187065 4285229931
1.1294985 -0.14363223 0.0745399 4287335563
1.1770898 -0.12789127 0.074407071 4289177511
1.2077986 -0.1088814 0.074258544 4290295992
0.94282448 -0.06923677 0.078123294 4279176975
0.97661096 -0.077116132 0.076044656 4284506208
1.0044277 -0.08864776 0.075763442 4284900966
1.2265656 -0.079771422 0.073983192 4290953922
0.94411719 -0.023830861 0.076600157 4283914840
0.96839559 -0.027716102 0.074634776 4284835173
1.2450526 -0.029090615 0.073164091 4291282887
1.2543893 -0.014491794 0.074815661 4290624957
0.94673091 0.022117291 0.074690826 4284573793
0.96263987 0.026570002 0.075516522 4284900966
1.2450767 0.029272115 0.073502585 4290822336
1.2557151 0.020680984 0.074507341 4289309097
0.97623426 0.074896656 0.075212359 4284900966
1.2327974 0.075641178 0.073855892 4288848546
1.2578363 0.070295654 0.077561989 4288585374
0.9932912 0.10749725 0.075123668 4285098345
1.0249749 0.12265133 0.074644007 4284900710
1.0724192 0.13586308 0.075599477 4284835173
1.1286068 0.14349176 0.074545816 4285098345
1.1749604 0.12793498 0.075163528 4286282619
1.2202829 0.1111974 0.075869694 4287401100
1.0872489 0.15118399 0.074839786 4284967015
1.1220868 0.15191102 0.07333146 4286809219
1.0334456 -0.15841472 0.12562835 4283914071
1.0797682 -0.16011184 0.12437265 4281690933
1.1244154 -0.15497945 0.12431303 4285300844
0.9845919 -0.11560486 0.12523428 4283387727
1.0221919 -0.12610313 0.12590872 4284637794
1.0717342 -0.13869067 0.1258269 4285164394
1.1294321 -0.14365458 0.12470027 4287138696
1.1768874 -0.12801105 0.12438308 4289243304
1.2082254 -0.10919327 0.12336613 4290295992
0.94277287 -0.069170199 0.12938258 4278848010
0.97684252 -0.076895073 0.12613407 4284440415
1.0050461 -0.089965731 0.12232617 4284900966
1.2266821 -0.079895027 0.12400155 4290953922
0.94403106 -0.023736598 0.12748754 4283521105
0.96833068 -0.027064703 0.12487002 4284703587
1.2452271 -0.028329941 0.12208258 4291348680
1.2536654 -0.013472256 0.12212557 4289967027
0.94646072 0.021382609 0.12517449 4283720532
0.96261328 0.026707558 0.12567177 4284835173
1.2450901 0.029182939 0.12344503 4290756543
1.2562784 0.019362997 0.12495816 4287664272
0.92100447 0.093016699 0.12762748 4278848010
0.976228 0.074891113 0.12561186 4284703587
1.2322973 0.076408349 0.1248095 4288190616
1.25726 0.072131611 0.12566635 4290888129
0.99285561 0.10707736 0.12532015 4284111450
1.0247298 0.12286357 0.12459923 4284835173
1.0730594 0.13739319 0.12505203 4284900966
1.1295323 0.14260885 0.12406534 4285098345
1.1751884 0.12885076 0.12432171 4285032552
1.2198931 0.11096634 0.12495132 4287927444
1.0869156 0.15120882 0.12466585 4284967272
1.1205194 0.15215465 0.12323912 4286743682
1.0319978 -0.15887114 0.17454208 4283716692
1.0801661 -0.16006313 0.17409325 4281756469
1.1221348 -0.15224795 0.1733122 4286678657
0.98357195 -0.11643827 0.17387751 4283058762
1.0221667 -0.12649961 0.17482388 4284637794
1.0712093 -0.13900934 0.1753462 4285164394
1.1293125 -0.14367744 0.17463703 4287072903
1.1766499 -0.12832084 0.17461023 4289243304
1.2078848 -0.11016494 0.17712328 4290295992
0.94272673 -0.069110364 0.17550026 4278848010
0.9766165 -0.077109098 0.17587566 4284374622
1.0069456 -0.093839727 0.17630897 4284900966
1.2267135 -0.07972198 0.173847 4290953922
0.94457716 -0.023062915 0.17541626 4283652435
0.96833688 -0.027187577 0.17467296 4284703587
1.2462034 -0.024857288 0.1730551 4291282887
1.2526006 -0.014146083 0.17512177 4291348680
0.94667667 0.02205899 0.17496346 4283917143
0.96245199 0.026038036 0.17503241 4284835173
1.2450447 0.029513029 0.17335956 4290690750
1.2564945 0.017726006 0.1736269 4287401100
0.92093551 0.092852518 0.17599471 4278848010
0.97614503 0.074755244 0.17467555 4284703587
1.2326586 0.076175347 0.1744123 4288124823
1.2563607 0.073547095 0.17793618 4290888129
0.9929105 0.10690642 0.17508747 4284111450
1.0247021 0.1225002 0.17423023 4284900966
1.0727884 0.13595292 0.17390195 4284900966
1.1282467 0.14383256 0.17528808 4285098345
1.1752877 0.12862551 0.17444015 4285164138
1.2196327 0.10975149 0.17411231 4288124823
1.0866622 0.15110955 0.17448035 4285032808
1.1202819 0.15225735 0.17295505 4286743682
1.0316414 -0.15910336 0.22536628 4283848278
1.0799993 -0.1600849 0.22397988 4281756469
1.1213171 -0.15136081 0.2241163 4287072135
0.98412389 -0.11730337 0.22343147 4283058762
1.0227735 -0.12687376 0.22462581 4284506208
1.0717399 -0.13917106 0.22405538 4284967015
1.1293392 -0.1436481 0.22408749 4287073159
1.1761421 -0.12822738 0.22446528 4289177511
1.2075359 -0.11148554 0.22406967 4290295992
0.94268054 -0.069050513 0.22160235 4278848010
0.97775197 -0.077024288 0.22423546 4284243036
1.0069479 -0.093996108 0.22601557 4284900966
1.2268183 -0.079629116 0.22333637 4290953922
0.94392365 -0.023541726 0.22317773 4283521105
0.96841931 -0.027824968 0.2243665 4284769380
1.246079 -0.02517776 0.22292809 4291282887
1.2520714 -0.012487983 0.22172832 4291348680
0.94622999 0.021637181 0.22482537 4283720532
0.96258581 0.026080083 0.22468843 4284835173
1.2451041 0.029446006 0.22311899 4290690750
1.2559398 0.014218034 0.22288024 4287664272
0.92086774 0.092691228 0.22347629 4278848010
0.97604877 0.074620947 0.2247829 4284769380
1.2308915 0.074708067 0.22393861 4287993237
1.2562609 0.075416781 0.20552389 4291348679
0.99268872 0.10663386 0.22500299 4284308829
1.024471 0.12249892 0.22454326 4284835429
1.0728184 0.13598464 0.22463875 4284835174
1.1291748 0.14316736 0.22348128 4285032552
1.175401 0.12937929 0.22410747 4285229931
1.2137541 0.11045317 0.22169767 4286745474
1.0864851 0.15112156 0.22463472 4285098601
1.1243044 0.15197764 0.22390352 4287138184
1.0314615 -0.15912753 0.27575332 4283914071
1.0804545 -0.16205607 0.27361411 4281035819
1.1163011 -0.15116179 0.26454088 4286874756
0.98442137 -0.11773139 0.27480823 4282861383
1.0227953 -0.12668429 0.27498746 4284506208
1.071722 -0.13888891 0.27337247 4285032808
1.1294131 -0.14367564 0.27379578 4287335307
1.1752132 -0.12683322 0.27192631 4289177511
1.2069907 -0.10749516 0.2696822 4290295992
0.94262922 -0.068984009 0.27280948 4278848010
0.97789496 -0.076310821 0.2753647 4284177243
1.0058078 -0.091791339 0.27462962 4284900966
1.2265085 -0.078011706 0.27177483 4290953922
0.94395971 -0.023403201 0.2735388 4283586386
0.96850312 -0.02885811 0.27434033 4284769380
1.2460037 -0.025263824 0.27264142 4291282887
1.2507439 -0.0097371805 0.27257627 4291414473
0.94634992 0.022466956 0.27508333 4283851350
0.96295971 0.026315819 0.27513593 4284769636
1.2452506 0.02888211 0.27272454 4290822336
1.2557942 0.011192181 0.27327943 4287335307
0.92079848 0.092526287 0.27201393 4278848010
0.97613811 0.074664906 0.27477306 4284835173
1.2306999 0.073803969 0.27443576 4288716960
0.99274093 0.10630002 0.27515668 4284835173
1.0248518 0.12282612 0.27457526 4284900965
1.0726609 0.13601595 0.27517942 4284900710
1.1301843 0.14299704 0.27299991 4285032552
1.1750647 0.12986891 0.27381974 4285032552
1.210676 0.10973562 0.27300584 4286940549
1.0863264 0.15113257 0.27489501 4285164137
1.1253771 0.15193394 0.27323067 4287203977
1.0326922 -0.15864995 0.3251622 4284176987
1.0804795 -0.16243656 0.32261452 4280904745
1.1048605 -0.1504741 0.31782109 4286545791
0.98406619 -0.11753073 0.3258962 4281742902
1.0222703 -0.12645821 0.32511699 4284308829
1.0717936 -0.13854602 0.32388222 4285032808
1.1293269 -0.1431497 0.32420522 4287203977
1.1765509 -0.12451059 0.32189977 4289243304
1.2048125 -0.10541769 0.318032 4290295992
0.94257748 -0.068917498 0.32399812 4278848010
0.97739249 -0.075864218 0.3252846 4284243036
1.0056332 -0.091540374 0.32427153 4284900966
1.2265344 -0.076630257 0.32316792 4290888129
0.94370055 -0.023087105 0.32312512 4283455312
0.96856117 -0.028899752 0.32436523 4284769636
1.2463957 -0.02497478 0.32389358 4291282887
1.2507839 -0.0093104448 0.32057986 4291414473
0.9457714 0.020693636 0.32421887 4283523921
0.96312886 0.026640013 0.32452673 4284835173
1.2459513 0.027293818 0.32233196 4290888129
1.255164 0.012596521 0.32179448 4287335307
0.92072141 0.092342481 0.32613188 4278848010
0.97624105 0.07452447 0.32495323 4284835173
1.2309846 0.073778942 0.3252953 4288980132
0.99233955 0.10583814 0.32537365 4284900966
1.0242299 0.12249508 0.32487246 4284900965
1.0726004 0.13678454 0.32536465 4284835174
1.1297482 0.14336836 0.3235684 4285032552
1.1746631 0.1299748 0.32287967 4285098345
1.2109722 0.1106279 0.32411066 4286808963
1.0862651 0.15117162 0.32461107 4285098344
1.1258019 0.15190385 0.32322606 4287204233
1.031321 -0.15909716 0.37416792 4283914071
1.0762022 -0.16727749 0.37468681 4278872074
0.98408842 -0.11706845 0.37578169 4282006074
1.0204138 -0.12498835 0.3752695 4284243036
1.0713421 -0.13793629 0.37441555 4285032808
1.1289161 -0.14232898 0.37495136 4287072391
1.1774857 -0.12269991 0.37289581 4289177511
1.2064855 -0.10167094 0.37334707 4290493371
0.94252622 -0.068851091 0.37516811 4278848010
0.9775098 -0.076276988 0.3749716 4284177243
1.0059365 -0.092187151 0.38008681 4284900966
1.22329 -0.078980759 0.37020901 4290427578
0.9437682 -0.023181554 0.37454471 4283586386
0.96877241 -0.028524451 0.37462866 4284769380
1.2472152 -0.0238529 0.3685241 4289901234
1.2523044 -0.0028033615 0.37708193 4291414473
0.94606626 0.022194246 0.37514761 4283917143
0.96315944 0.027125468 0.37481245 4284835429
1.2469251 0.030859554 0.374623 4290953922
1.2511704 0.019849051 0.37885028 4291151301
0.92064655 0.092163846 0.37871253 4278848010
0.97607207 0.07455644 0.37528008 4284835173
1.2304554 0.076839551 0.37658343 4289243304
0.99226028 0.10594784 0.37498567 4284900966
1.0235171 0.12281284 0.37445819 4284900965
1.0719888 0.13624442 0.37410185 4284900710
1.1289626 0.14318518 0.37428695 4284967015
1.1761342 0.13006744 0.37221447 4284966759
1.2127281 0.11021597 0.37420505 4286677377
1.0859604 0.15112802 0.37417641 4285164137
1.1250206 0.15206033 0.37357453 4287204233
1.0311114 -0.1590057 0.42492673 4283519314
1.0762657 -0.16730431 0.42454711 4278477572
0.98485613 -0.11777409 0.42507744 4282269246
1.0199617 -0.12521751 0.42540109 4284045657
1.071048 -0.13815676 0.42403108 4285033064
1.1289506 -0.14293317 0.4236666 4287072391
1.1780521 -0.12240543 0.42386392 4289243304
1.206455 -0.10173316 0.42312908 4290493371
0.94247484 -0.068784639 0.42631966 4278848010
0.97747439 -0.076287277 0.42473605 4284374622
1.0060633 -0.092413366 0.42511183 4284900966
1.2198452 -0.082119338 0.42321521 4290230199
0.94365954 -0.023176245 0.42504862 4283455312
0.96877593 -0.028138841 0.42441139 4284835173
1.2525239 -0.0032203197 0.40758428 4291414473
0.94614565 0.021977397 0.42443591 4283917143
0.9629032 0.0265256 0.42464602 4284835429
1.248692 0.036249161 0.40013364 4290888129
1.2513478 0.019360185 0.40571445 4291151301
0.92057884 0.092002839 0.4260976 4278848010
1.2241806 0.086295746 0.42081928 4286940549
0.99172139 0.10584382 0.42469794 4284900966
1.023469 0.12363458 0.42355013 4284900966
1.0686213 0.13362569 0.42332259 4284900710
1.1276282 0.14103535 0.42180207 4284967270
1.1735168 0.13269618 0.4222526 4283321934
1.2155906 0.11471298 0.42244399 4284900966
1.0850612 0.15119602 0.42324671 4285295724
1.1248852 0.1522809 0.42325059 4287401611
1.0244268 -0.1608367 0.46937212 4281808695
1.0790882 -0.16789471 0.4618713 4278412035
0.98320276 -0.11664071 0.47245491 4281677109
1.0205604 -0.12241112 0.4725177 4284111450
1.0707061 -0.13834319 0.47394207 4285032808
1.1282372 -0.14392909 0.47422493 4287006598
1.1797513 -0.12217568 0.47342631 4289309097
1.206424 -0.10179615 0.47352943 4290493371
0.94242346 -0.068718202 0.47745252 4278848010
0.9766618 -0.075723507 0.4737477 4284440415
1.006495 -0.093526378 0.47154683 4284900966
1.2202603 -0.081924401 0.47286952 4290295992
0.94361073 -0.023233159 0.47512168 4283520593
0.94564462 0.021401968 0.47429365 4283654995
0.96297193 0.028132174 0.47308299 4284900966
0.92051119 0.091841862 0.47346085 4278848010
0.97371525 0.074808709 0.47379798 4284835173
1.2235585 0.087147377 0.4750793 4286282619
0.93042278 0.11428878 0.47565937 4278848010
0.99062204 0.10661408 0.47208998 4284900709
1.0231463 0.12248686 0.47210237 4284835430
1.1215222 0.14184035 0.47231394 4284900966
1.1734043 0.13309848 0.47194636 4283387727
1.2166275 0.11374604 0.47325358 4284900966
1.0856675 0.15119585 0.47114509 4285361516
1.1257095 0.15222418 0.47207227 4287270282
1.0110648 -0.16447562 0.50931042 4278848010
0.97870851 -0.11508581 0.50733292 4281414449
1.0223883 -0.12010622 0.5080983 4284376671
1.0681611 -0.13743286 0.50677109 4284901989
1.1266066 -0.14390998 0.50772053 4286611584
1.1758971 -0.12447454 0.50718945 4288453788
0.94239259 -0.068678379 0.50812411 4278848010
0.97029096 -0.074410528 0.50789607 4283586386
1.0068432 -0.09491688 0.50691038 4284966248
1.2199773 -0.081719019 0.50529981 4290361785
0.94305146 -0.022674914 0.50674021 4280761383
0.95522141 -0.029006666 0.50777566 4284573537
0.94598335 0.022795402 0.50867385 4283393360
0.95958275 0.029740751 0.50741261 4284835685
1.2235379 0.087184787 0.50521976 4286282619
0.99151343 0.10733929 0.50669289 4284114523
1.0688221 0.1367193 0.50788391 4284835429
1.1313916 0.13827884 0.50588304 4284966759
1.175127 0.13027968 0.50625759 4282466625
1.2166741 0.11371589 0.50852591 4284900966
1.0901166 0.15114981 0.50599897 4283525713
1.1248621 0.15260604 0.50676084 4281748278
