# .PCD v0.7 - Point Cloud Data file format
VERSION 0.7
FIELDS x y z rgb
SIZE 4 4 4 4
TYPE F F F U
COUNT 1 1 1 1
WIDTH 257
HEIGHT 1
VIEWPOINT 0 0 0 1 0 0 0
POINTS 257
DATA ascii
1.2189867 0.98045349 0.024483589 4289243304
1.22934 1.0215045 0.029215161 4290559164
0.93245524 1.0759864 0.024137391 4287006342
1.2443157 1.0713893 0.029508777 4290888129
0.93266219 1.1249166 0.024571482 4286611584
0.95902073 1.1304653 0.02770431 4284966759
1.245973 1.1247184 0.028799254 4290624957
1.2301037 1.1768285 0.026769971 4289374890
1.1260448 1.2470322 0.0294243 4285229931
1.1770462 1.2301708 0.026318599 4287466893
1.1235487 0.94069576 0.075109109 4287795858
1.1736032 0.93454373 0.075103641 4286488446
0.99243957 0.99312079 0.075283237 4284637794
1.1277164 0.9572174 0.075371794 4287269514
1.1793643 0.97154051 0.075388975 4289506476
1.2137866 0.98501748 0.07528469 4287669904
0.94394505 1.0426139 0.077612773 4284900710
0.97328866 1.0250019 0.076161332 4284506208
1.1986965 1.0042607 0.079143129 4289835441
1.2286606 1.0215267 0.074739814 4290494395
1.2685384 1.0279261 0.074027367 4282737477
0.94166386 1.0758889 0.073772222 4284181339
0.96336573 1.0693941 0.07519643 4284835173
1.2442626 1.0713398 0.074194141 4290559164
1.2611471 1.0772742 0.074402161 4286545791
0.93948108 1.1253375 0.074871935 4284049753
1.2458438 1.1248229 0.073579952 4290559164
1.2537827 1.1100404 0.075943552 4287006342
0.97062159 1.1764039 0.075326987 4285032552
1.2257885 1.1776465 0.074111901 4289638062
0.98265016 1.220284 0.077391185 4282729797
1.0229573 1.2259855 0.074924685 4284835173
1.0711653 1.2445344 0.074301004 4284900966
1.12588 1.2468436 0.074570157 4285032552
1.1759005 1.2283971 0.073122524 4287137928
1.2055897 1.2103232 0.073327005 4287927444
1.0891993 1.2508092 0.071751282 4284900966
1.1204305 1.2514027 0.071934864 4286282619
1.0782442 0.93963981 0.12627302 4283650899
1.1225225 0.93989366 0.12930946 4287335307
1.1729335 0.93511206 0.12992792 4286685056
0.9926579 0.99298316 0.12535323 4284440415
1.1275376 0.957174 0.12617335 4287269514
1.1794549 0.97145021 0.12590641 4289506476
1.2150835 0.98608375 0.1256979 4287013766
0.94360012 1.0431945 0.13003713 4284900711
0.97370511 1.025166 0.12715429 4284374622
1.1989129 1.0045239 0.12889595 4289835441
1.2286853 1.0215424 0.12559888 4290560188
1.2671993 1.0294368 0.1242912 4281815351
0.94069701 1.0758603 0.12701339 4282802758
0.96338749 1.0689279 0.1263628 4284900710
1.2441012 1.0712488 0.12424673 4290098613
1.2600155 1.0787425 0.12507159 4285098345
0.93929154 1.1254205 0.12636968 4283459152
0.95660424 1.1288085 0.12529752 4284835173
1.2458777 1.1246909 0.1235296 4290230455
1.253824 1.1098036 0.12617044 4285098345
1.2256646 1.1774693 0.12400296 4289374890
1.0710742 1.2445077 0.12453637 4284900966
1.1258168 1.2468963 0.12507774 4285032552
1.1757981 1.2284503 0.12334171 4285953654
1.2054824 1.2100011 0.12331486 4284966759
1.0888944 1.2508543 0.12268683 4284900966
1.1203305 1.2514474 0.12194894 4286282619
1.0739831 0.94238991 0.17610687 4284111450
1.1226821 0.93979412 0.17690344 4287598479
1.1711415 0.93467039 0.17925934 4286619264
0.99269313 0.99307096 0.17527284 4284374622
1.1277701 0.95709974 0.17500199 4287335307
1.1792336 0.97126865 0.17530212 4289440683
1.2152103 0.98625731 0.17457707 4287079302
0.94402355 1.0423909 0.17934112 4284835430
0.97380286 1.0250298 0.17697112 4284374622
1.1991293 1.0047867 0.1786411 4289901234
1.2287228 1.0214612 0.17458063 4290428859
1.2677056 1.0224777 0.17615731 4282804294
0.94136328 1.0763026 0.17556784 4282670916
0.96367902 1.0685025 0.17581277 4284900710
1.2441002 1.0710635 0.17413656 4290098613
1.2598789 1.0767618 0.1755155 4284835174
0.93927997 1.1256046 0.17573155 4283459151
0.95649916 1.1291866 0.17520857 4284835173
1.2458476 1.124846 0.17366943 4290296248
1.2538655 1.1095666 0.17620417 4285098345
1.2244067 1.1797928 0.17334759 4289177511
0.98356879 1.2195494 0.17708209 4282335039
1.0717864 1.2448636 0.17415509 4284900966
1.125607 1.2469963 0.17495216 4285032552
1.1759536 1.2286105 0.17350365 4285756275
1.2051243 1.209947 0.17367162 4285361517
1.0889779 1.2508047 0.17200854 4284900966
1.1194221 1.2515618 0.17168811 4286216826
1.0738188 0.9428618 0.22740112 4284177243
1.1229346 0.94032633 0.22702143 4287795858
1.1697276 0.93475503 0.22783923 4286750337
0.99242002 0.99304062 0.22485575 4284572001
1.1276544 0.95719594 0.22559083 4287335307
1.1777903 0.97082919 0.22548868 4289440683
1.2150637 0.986224 0.22513199 4287144840
0.94393879 1.042505 0.22835657 4284900966
0.9742642 1.0246365 0.22645643 4284572001
1.1993456 1.0050497 0.22837853 4289901234
1.228686 1.021419 0.22475657 4290428858
1.2692548 1.0206863 0.21986702 4282476609
0.94094485 1.0765445 0.2258624 4282605379
0.96357471 1.0691885 0.22534065 4284900709
1.2441137 1.071099 0.22409385 4290164406
1.2596971 1.0741295 0.22487123 4284637795
0.93943089 1.126009 0.22526957 4283524689
0.95625132 1.1285129 0.22390547 4284769380
1.2457659 1.1252028 0.22365054 4290295992
1.2542968 1.1099296 0.22400379 4284374622
1.2263788 1.1784632 0.2231992 4288980132
0.98212934 1.2203398 0.22654137 4282006074
1.0720023 1.2456528 0.22322914 4284900966
1.12547 1.2472829 0.22401935 4285098345
1.1742196 1.2302617 0.22308622 4285427054
1.2056583 1.2094229 0.22386214 4285427310
1.0889742 1.2508807 0.22204924 4284900966
1.1190245 1.2515819 0.2217617 4286151033
1.1229372 0.94036549 0.27639812 4287795858
1.1694372 0.93537122 0.27767545 4286881668
1.2235324 0.94326621 0.27747256 4278216192
0.99198616 0.99318814 0.27475184 4284703587
1.1279255 0.9571327 0.27580896 4287401100
1.1787856 0.97171557 0.27593806 4289506476
1.2152663 0.98640841 0.27519214 4286882436
0.94385636 1.042616 0.27606252 4284900710
0.97468519 1.0248384 0.2768153 4284440415
1.0162334 1.0205948 0.27600157 4284900966
1.1995618 1.0053127 0.27810827 4289901234
1.2284565 1.0211689 0.27469176 4290560188
1.2685267 1.0217822 0.27108115 4282212669
0.94101095 1.0751412 0.27522999 4282670148
0.96365309 1.0686303 0.27559304 4284835174
1.2442144 1.0713547 0.27420753 4290098613
1.2622787 1.0716889 0.27577636 4283256141
0.93923336 1.1259085 0.27559614 4283459152
0.95604521 1.1280426 0.27354503 4284835173
1.244693 1.1284842 0.27390885 4290098613
1.2574948 1.1141524 0.27655956 4278848010
0.96831113 1.1757791 0.27510309 4284900966
1.2244709 1.1806507 0.27279872 4288914339
0.98069316 1.2216375 0.27693775 4281611316
1.0243776 1.2292622 0.27398306 4284769380
1.0726731 1.2470424 0.27141875 4284900966
1.1274577 1.2477587 0.27112123 4285164138
1.1762357 1.230571 0.27210766 4284308829
1.2064397 1.210482 0.26974434 4283650899
1.0887034 1.2509379 0.27207032 4284900966
1.1190697 1.2516305 0.27166903 4286151033
1.0744414 0.94270188 0.32616398 4284177243
1.1229324 0.94035095 0.32561931 4287795858
1.1692959 0.93573964 0.32655492 4287012742
1.2234344 0.94318855 0.32686806 4278216192
0.99197412 0.99306655 0.32480675 4284637794
1.0714288 0.96588188 0.32548749 4285164138
1.1279277 0.95728809 0.32574391 4287335307
1.1790309 0.97187746 0.32605055 4289506476
1.215163 0.98614484 0.32575259 4286816900
0.9435128 1.043195 0.32785386 4284900710
0.97386575 1.0256379 0.32685888 4284440415
1.1997782 1.0055755 0.32783034 4289901234
1.2283568 1.0210196 0.32522789 4290165942
1.2569914 1.0326478 0.32337004 4285822068
0.94158727 1.0752995 0.32695085 4282669636
0.9636212 1.0685114 0.32562345 4284835174
1.2439026 1.0712466 0.32461697 4289703855
1.2614766 1.0711527 0.3258656 4283585362
0.93976599 1.1261144 0.32536399 4283590226
0.95589811 1.1272357 0.32282636 4284900966
1.2454466 1.1202662 0.32084376 4289440683
1.2575657 1.1135076 0.32602447 4278848010
0.9666149 1.1762339 0.32466504 4284900966
1.2228017 1.1866496 0.31365025 4287006342
0.98100787 1.2220156 0.32638758 4281545523
1.0250542 1.2303234 0.32421863 4284703587
1.0693752 1.2468965 0.32170293 4284900966
1.1295489 1.247782 0.32298163 4285229931
1.1759355 1.2309798 0.31873706 4284111707
1.2077557 1.2104344 0.32051021 4283124555
1.0893021 1.2509272 0.31780717 4284900966
1.1173936 1.2516207 0.31614807 4286019447
1.0738306 0.94268507 0.37531906 4284177243
1.123531 0.9405821 0.37567958 4287795858
1.1696999 0.93587494 0.37583259 4287012998
0.99209094 0.99298501 0.37483644 4284703587
1.1291203 0.95704269 0.3761116 4287401100
1.1784055 0.97130507 0.37637228 4289440683
1.2154603 0.98624414 0.37542525 4286751106
0.94416398 1.0419844 0.37264892 4284900710
0.97392583 1.0259898 0.37603605 4284506208
1.1999511 1.0057858 0.36760262 4289835441
1.2282624 1.0207088 0.37523693 4289772208
1.2573613 1.0332789 0.37143824 4285098345
0.94086474 1.0777246 0.37421516 4282868295
0.96349472 1.0682422 0.37594792 4284835174
1.2437016 1.0713561 0.37506923 4290164406
1.2614821 1.071089 0.37538421 4283585362
0.93973774 1.1263011 0.37651572 4283721300
0.95222247 1.1291436 0.3759768 4284900966
1.2457807 1.1156843 0.37500519 4290164406
1.2576375 1.1128566 0.37596315 4278848010
0.96502668 1.1789465 0.37627122 4284900966
0.98028219 1.2217431 0.37738651 4281611316
1.0212705 1.2298394 0.37468442 4284506208
1.1350114 1.2468069 0.35309505 4285164138
1.1663291 1.2354671 0.35559672 4286545791
1.0164633 1.2626574 0.37859672 4278848010
1.0744475 0.94224632 0.42437932 4284177243
1.1233773 0.94008249 0.42384765 4287795858
1.174742 0.93276823 0.42080793 4286029175
0.99204516 0.992818 0.42410007 4284769380
1.0278118 0.97796899 0.42433473 4284835173
1.1292115 0.95696056 0.42376482 4287401100
1.1777003 0.97047436 0.42265812 4289374890
1.2163284 0.98880374 0.42187417 4288327066
0.97384369 1.0227017 0.42327076 4284703587
1.0179054 1.0235827 0.42459488 4284900966
1.2276322 1.0201088 0.42281881 4290560188
1.2574164 1.033336 0.42177147 4285098345
0.94841504 1.0844986 0.42532799 4284835174
0.96287203 1.0706981 0.42463425 4284835173
1.2433647 1.0713166 0.42444944 4291414473
1.2640381 1.0707904 0.42063773 4281940281
0.94107056 1.1252267 0.42405999 4284704355
0.9523688 1.1309303 0.4263756 4284900966
1.2457287 1.1157396 0.42506474 4291282887
1.2577043 1.1122504 0.42244652 4278848010
0.96859878 1.17664 0.42504856 4284900966
0.9859094 1.2159071 0.41851589 4282992969
1.0197564 1.2290788 0.42499465 4284637794
1.123916 0.94026494 0.47318593 4287795858
0.9920035 0.99275094 0.47379547 4284900966
1.1293242 0.95726418 0.47438759 4287466893
1.1762359 0.97073954 0.47367194 4289309097
1.2162033 0.99159205 0.47313139 4290690750
0.97101378 1.0235212 0.47460786 4284769380
1.2253634 1.0177956 0.47424033 4290822849
1.2574695 1.0333911 0.4702698 4285098345
0.94833678 1.0846958 0.47387967 4284900709
0.9631238 1.0703131 0.47470626 4284835429
1.243142 1.071466 0.47350585 4291414473
1.2705922 1.0691514 0.47361225 4278848009
0.95267189 1.1344621 0.47425777 4284900966
1.2461122 1.1073313 0.47451353 4291282887
1.2172841 0.99219751 0.50743711 4287137928
0.97167969 1.0222766 0.508398 4284441951
1.2232337 1.0174031 0.50753558 4289771440
1.2575097 1.0334327 0.5069648 4280361249
0.94820195 1.0846554 0.50581968 4284835173
0.96094823 1.0700189 0.50762713 4284638818
1.2436236 1.0742534 0.50657374 4291480266
1.2706971 1.0685974 0.50515652 4278782473
0.9398675 1.1266817 0.50881106 4282467393
1.246223 1.106596 0.50736845 4288914339
