# .PCD v0.7 - Point Cloud Data file format
VERSION 0.7
FIELDS x y z rgb
SIZE 4 4 4 4
TYPE F F F U
COUNT 1 1 1 1
WIDTH 366
HEIGHT 1
VIEWPOINT 0 0 0 1 0 0 0
POINTS 366
DATA ascii
1.1231494 -1.2721827 0.023035575 4288453788
0.97815371 -1.2222921 0.025595514 4287466893
1.0712855 -1.2412552 0.029543908 4285164138
1.1222199 -1.2438587 0.02923798 4286808963
1.1768863 -1.2327687 0.02788718 4288848546
0.971744 -1.1768085 0.029148692 4285558896
1.2312844 -1.1765007 0.026983052 4290493371
0.93330908 -1.1252007 0.023443045 4286479998
0.96299881 -1.1259193 0.030476727 4284966759
1.2435648 -1.1298519 0.029454373 4291348680
0.93382359 -1.0745431 0.022894364 4286808963
1.2419379 -1.0704834 0.029627783 4290756543
0.97345215 -1.0245605 0.029408425 4285229931
1.2261745 -1.0228742 0.029320043 4289506476
0.98064727 -0.97679847 0.026463967 4286611584
1.0752707 -0.93074906 0.024701837 4286808963
1.0241908 -1.260974 0.075207882 4281808695
1.0753144 -1.2605726 0.074198 4284703587
1.1214755 -1.2689402 0.074434645 4288124823
1.1753993 -1.2745084 0.07402236 4286681729
0.94542557 -1.2139484 0.075807907 4282269246
0.98012197 -1.2197669 0.076110043 4282071867
1.0265299 -1.2249663 0.073873341 4284703587
1.0715222 -1.2409241 0.073850811 4285098345
1.1245579 -1.2433636 0.075051866 4286940549
1.1775249 -1.2317554 0.075587511 4288980132
1.2077967 -1.2092379 0.077147581 4290295992
0.93880093 -1.169798 0.074972801 4284835173
0.97202659 -1.1767832 0.075238295 4284178011
1.0055887 -1.1872739 0.074408688 4284900966
1.2296896 -1.1749336 0.074320823 4291085508
0.94137776 -1.1258829 0.07474605 4284835173
0.9629333 -1.125719 0.074963301 4284769636
1.2437214 -1.1296196 0.075648531 4291348680
1.2511042 -1.1142483 0.072804265 4290690750
0.94340229 -1.0740316 0.075021751 4283262286
0.95941132 -1.0725806 0.075152129 4284704099
1.2424318 -1.0707787 0.075103931 4290822336
1.2552881 -1.0812951 0.0727005 4288256409
0.94687194 -1.0428913 0.07599175 4284900966
0.97403622 -1.0245695 0.074644268 4284835173
1.1955613 -1.0045724 0.075586423 4289572269
1.2254399 -1.0245624 0.074697085 4289703854
1.2549664 -1.0400208 0.07064274 4290953922
0.98420578 -0.97783935 0.075745255 4283984472
1.0245992 -0.97422212 0.074810199 4284835173
1.0711825 -0.96203411 0.074523613 4284900966
1.1274674 -0.95972252 0.0744339 4285032552
1.1742239 -0.97428918 0.074820146 4286874756
1.2100472 -0.99220848 0.073553465 4288387995
1.0261285 -0.93729264 0.075685292 4282536770
1.0756652 -0.93481797 0.073949561 4283256141
1.118353 -0.94004065 0.073164433 4282992969
1.1505423 -0.93479222 0.070160754 4278848010
0.97842294 -1.2604759 0.13239214 4278848010
1.0238349 -1.2608187 0.12590393 4280821800
1.0753833 -1.260644 0.12409057 4284308829
1.1213815 -1.2689447 0.12475916 4288322202
1.178357 -1.2736678 0.12444555 4278216192
1.2178285 -1.2578609 0.1221223 4278216192
0.94448978 -1.212033 0.12895866 4278848010
0.98191357 -1.2182647 0.12599373 4281216558
1.0265651 -1.2247428 0.12406664 4284703587
1.0715492 -1.2408961 0.1238545 4285098345
1.1258081 -1.2432166 0.12401777 4287006342
1.1774321 -1.2316135 0.12541883 4288456604
1.2069292 -1.2108104 0.12539935 4290230199
0.93878967 -1.1707063 0.12515785 4284374622
0.97206855 -1.1756396 0.1248844 4284046937
1.2299324 -1.1747807 0.12512095 4291019715
0.94136691 -1.1263885 0.12525684 4284835173
0.96307164 -1.1259351 0.12494452 4284769636
1.2437931 -1.1296055 0.12639628 4291348680
1.2513347 -1.1143556 0.12460652 4290690750
0.94371486 -1.0739514 0.12570989 4283524433
0.95894861 -1.0736274 0.124978 4284704099
1.2425215 -1.0706656 0.12537922 4290822336
1.2561848 -1.0805722 0.1224494 4286808963
0.94690543 -1.0432981 0.12796493 4284900966
0.97405308 -1.024742 0.12538876 4284769636
1.1956342 -1.0046257 0.12578945 4289572269
1.2263811 -1.0244942 0.12475871 4289703855
1.2550207 -1.0400828 0.11920416 4290953922
0.98433179 -0.97782224 0.12601902 4282934088
1.0246601 -0.97425282 0.12488626 4284835173
1.0713906 -0.96203125 0.12424766 4284769892
1.127546 -0.95952028 0.12475124 4284967271
1.1744449 -0.97407937 0.12540783 4286940549
1.2107204 -0.99240893 0.12264142 4288387995
0.98842955 -0.94329137 0.12401345 4278216192
1.0265765 -0.93752468 0.1259343 4281815095
1.0753076 -0.93508708 0.12382332 4283387727
1.1181116 -0.93919927 0.1228046 4282598211
1.1504672 -0.93475926 0.11917603 4278848010
0.97845006 -1.2605152 0.1782822 4278848010
1.0248842 -1.2592947 0.17575094 4280953386
1.0753196 -1.2606647 0.17401434 4284572001
1.1221256 -1.2688684 0.17432448 4287993749
1.1783618 -1.2736876 0.17447378 4278216192
1.217824 -1.2578826 0.17216472 4278216192
0.94502389 -1.2132151 0.17566238 4278848010
0.97974634 -1.2183378 0.17539552 4281150765
1.0264144 -1.2247947 0.17388032 4284703587
1.0715401 -1.2408466 0.17364351 4285164138
1.1230417 -1.2436067 0.17356223 4286874756
1.176507 -1.2314501 0.17410827 4288194456
1.2067927 -1.2109799 0.17546742 4290230199
0.93893152 -1.1673791 0.17655012 4284572001
0.97193152 -1.1757904 0.17484771 4284178779
1.2298797 -1.1750848 0.17489998 4290953922
0.94109553 -1.1259772 0.17459963 4284900966
0.96307319 -1.1259729 0.17540501 4284769636
1.2438143 -1.129335 0.17490409 4291348680
1.2513801 -1.1141587 0.17332286 4290888129
0.94323665 -1.0738051 0.17472999 4283262285
0.95946056 -1.0725998 0.17562605 4284704099
1.2425131 -1.0703719 0.17489554 4290822336
1.2561786 -1.080757 0.17374927 4286808963
0.94688034 -1.0428467 0.17952906 4284900709
0.97423357 -1.0245647 0.17505291 4284835173
1.0206157 -1.0108175 0.17722718 4284900966
1.1960652 -1.0049725 0.1757489 4289572269
1.2261951 -1.0243341 0.1747961 4289703855
1.2550833 -1.0401535 0.17491326 4290953922
0.98435199 -0.9778077 0.17557052 4282868295
1.0246252 -0.97423649 0.17462575 4284835173
1.0713469 -0.96203887 0.17446691 4284835429
1.1273997 -0.95959085 0.17385131 4284901734
1.1742548 -0.97407877 0.17482565 4286874756
1.2104009 -0.99236196 0.17285495 4288256409
0.98870105 -0.94305688 0.17365506 4278216192
1.0258683 -0.93757814 0.17410398 4281815607
1.0761118 -0.9348191 0.1734771 4283256141
1.1179569 -0.93915677 0.17493404 4282598211
1.1503823 -0.93472213 0.17441455 4278848010
0.97783619 -1.2599869 0.2300113 4278848010
1.0231353 -1.2605132 0.2254177 4280821800
1.076148 -1.2611389 0.22317402 4284506208
1.1217273 -1.268793 0.22433455 4287862419
1.2167673 -1.2584505 0.22459002 4278216192
0.94508553 -1.2134277 0.22450952 4278848010
0.97964185 -1.2180879 0.22597994 4281085228
1.0262579 -1.2247509 0.22361986 4284703587
1.071032 -1.2405477 0.22301717 4285098345
1.1218562 -1.2437602 0.22280876 4286677377
1.177773 -1.2292517 0.2231741 4288063638
1.2069811 -1.2099413 0.22223209 4290295992
0.93901032 -1.1683381 0.22639868 4284506208
0.97184712 -1.1759406 0.22413397 4284178779
1.229857 -1.175091 0.22444589 4291019715
0.94140917 -1.1256447 0.2258254 4284900966
0.96284693 -1.1257508 0.22530329 4284704100
1.2440461 -1.129225 0.22500619 4291348680
1.2514126 -1.1149738 0.22372471 4290888129
0.94356197 -1.0737473 0.22509746 4283524433
0.95964235 -1.0721076 0.22477075 4284704099
1.2426889 -1.07008 0.22415391 4290822336
1.2553293 -1.0805032 0.22410835 4287664272
0.94691819 -1.0428293 0.22567262 4284900710
0.97437477 -1.0248427 0.22547784 4284835173
1.0181073 -1.0114886 0.22629683 4284900966
1.1954505 -1.0044525 0.22518881 4289572269
1.2261754 -1.0238326 0.22430745 4289703855
1.2551453 -1.0402261 0.23060559 4290953922
0.98444861 -0.97777343 0.22596665 4282868295
1.0245632 -0.97472048 0.22489409 4284835173
1.0713581 -0.96200603 0.22465256 4284769892
1.1273023 -0.95941848 0.22437954 4284901478
1.1744827 -0.97412044 0.22468089 4286940549
1.2113222 -0.99398041 0.22303474 4288387995
0.98897266 -0.94282234 0.22329184 4278216192
1.0272357 -0.93610525 0.22236592 4281814327
1.0754774 -0.93459851 0.22357626 4283321934
1.1186157 -0.9396494 0.22575527 4282664004
1.1503121 -0.93469143 0.22009622 4278848010
0.97851002 -1.2606022 0.2789759 4278848010
1.0118991 -1.2639251 0.27398768 4278848010
1.0755575 -1.2603467 0.26941386 4284111450
1.1239867 -1.2733867 0.26785928 4285233003
1.1782978 -1.2738029 0.26842204 4278216192
1.2167721 -1.2584677 0.27392495 4278216192
0.94500148 -1.2133037 0.27828082 4278848010
0.98002332 -1.2179023 0.27541485 4281085740
1.0259701 -1.2252196 0.27354971 4284703587
1.0710564 -1.2405379 0.2724756 4285098345
1.1206558 -1.2432886 0.2719937 4286677377
1.1775041 -1.226997 0.2723071 4287933587
1.2073264 -1.2074023 0.27399221 4290427578
0.93879008 -1.1658548 0.27586183 4284572001
0.97059107 -1.175884 0.2737287 4284178523
1.2301764 -1.1742889 0.27315304 4291085508
0.94103128 -1.1254996 0.27560508 4284900966
0.96307057 -1.1258183 0.27505526 4284704100
1.2442409 -1.128881 0.27381459 4291348680
1.2514591 -1.1146361 0.27301961 4290888129
0.94303858 -1.0736527 0.27531332 4283262285
0.95963675 -1.0722958 0.2747243 4284638562
1.2437766 -1.0694668 0.27436548 4290756543
1.2555125 -1.079742 0.27346003 4287466893
0.94694746 -1.0423343 0.27607247 4284900710
0.97407722 -1.024743 0.27508104 4284769636
1.0181481 -1.0114735 0.27638945 4284900966
1.2290729 -1.0235209 0.2745277 4289572269
1.2551973 -1.040308 0.27976394 4290953922
0.98400635 -0.9779107 0.27522844 4282802758
1.0246452 -0.97443169 0.27463597 4284835173
1.071739 -0.96207517 0.27467164 4284769892
1.1271075 -0.95958346 0.27391014 4284901734
1.1744336 -0.97413248 0.27430487 4286611584
1.2105243 -0.9937737 0.27325779 4288256409
0.9892441 -0.94258785 0.27292395 4278216192
1.026327 -0.93597049 0.27243254 4281814327
1.0752923 -0.93455869 0.27452922 4283256141
1.1175925 -0.93934357 0.27552295 4282664004
1.1502367 -0.93465841 0.26904136 4278848010
0.97789645 -1.2600739 0.33045012 4278848010
1.0107471 -1.2653418 0.3259359 4278848010
1.07177 -1.2569457 0.32308328 4283650899
1.1166377 -1.2599417 0.3227039 4278848010
0.94440937 -1.2121238 0.3295702 4278848010
0.97853303 -1.2187946 0.32572541 4281216558
1.0259001 -1.2251971 0.32346356 4284703587
1.0703772 -1.2396954 0.32229555 4285032552
1.1181037 -1.2427307 0.31850812 4286479998
1.2096782 -1.2033018 0.32595974 4290690750
0.93904519 -1.1674103 0.32627952 4284572001
0.96914226 -1.1758158 0.32436636 4284178011
1.2310956 -1.1727585 0.32484001 4291085508
0.94076961 -1.1238308 0.32561663 4284900966
0.96315247 -1.12442 0.32597923 4284704099
1.2439675 -1.128737 0.32473904 4291348680
1.2514204 -1.1146055 0.32281533 4291019715
0.94305915 -1.0735571 0.32560685 4283524433
0.95982933 -1.0721766 0.32486951 4284638562
1.2436194 -1.0697645 0.32463548 4290690750
1.2549741 -1.0792959 0.32450482 4287927444
0.94694 -1.0425915 0.32541019 4284900710
0.97351032 -1.0245806 0.32507947 4284769636
1.0167561 -1.0111185 0.32573721 4284900966
1.2292447 -1.0241067 0.32463953 4289572269
1.2556738 -1.0411862 0.32401398 4290953922
0.98420054 -0.97742981 0.3251009 4282868295
1.0248526 -0.9742797 0.32486919 4284835173
1.0712944 -0.96206933 0.32444492 4284769892
1.1269488 -0.95980239 0.32417646 4284770404
1.1735197 -0.97289586 0.32536522 4286545791
1.2093701 -0.99054331 0.32372656 4288059030
0.98951578 -0.94235343 0.32255128 4278216192
1.0272547 -0.93657351 0.32263422 4281945657
1.0749701 -0.93477559 0.32474902 4283321934
1.1176353 -0.94026488 0.32470512 4282795590
1.150152 -0.93462139 0.32420084 4278848010
1.0093281 -1.2682366 0.36990118 4278848010
1.0714571 -1.2569047 0.37358338 4283914071
1.1156372 -1.2600504 0.3730374 4278848010
0.94619709 -1.2159472 0.36521876 4278848010
0.9807815 -1.2167932 0.37418264 4281677109
1.0699018 -1.2389729 0.37276098 4285032552
1.1105436 -1.2409471 0.37254608 4285427310
1.2105912 -1.2037534 0.3624655 4290953922
0.94103658 -1.1680137 0.36859506 4284506208
0.9692679 -1.1755302 0.37489229 4284112474
1.2335658 -1.1704501 0.36312336 4290690750
0.942285 -1.1234607 0.37220204 4284900966
0.96287262 -1.124241 0.37544554 4284704099
1.2422168 -1.1295962 0.37423933 4291348680
1.2517802 -1.1150317 0.37304804 4289769648
0.94277114 -1.0731647 0.37514776 4283262285
0.95933944 -1.0731647 0.37458342 4284638562
1.2426444 -1.067915 0.37515199 4290690750
1.2555046 -1.0806167 0.37448946 4287795858
0.94694936 -1.0421785 0.37480527 4284900710
0.9726308 -1.0238318 0.37433296 4284769636
1.2286197 -1.0236424 0.37488618 4289572269
1.2548634 -1.0396718 0.37237543 4290888129
0.9842242 -0.97736722 0.37497991 4282868551
1.0242472 -0.97403204 0.37527883 4284835173
1.0713449 -0.96201235 0.37458226 4284835428
1.1270328 -0.95999503 0.37462413 4284966759
1.1740531 -0.97307718 0.37559178 4286611584
1.209682 -0.99094981 0.3742561 4287927444
0.98978728 -0.94211882 0.37217388 4278216192
1.0264589 -0.93584877 0.37329859 4281814327
1.0751741 -0.93459702 0.37565586 4283124555
1.1182353 -0.93941373 0.37368244 4282664004
1.1500676 -0.9345845 0.37933132 4278848010
1.0711504 -1.2568648 0.42294934 4283848278
1.1146381 -1.2601591 0.42329755 4278848010
0.98516452 -1.2147694 0.42497572 4281940281
1.0244831 -1.2272509 0.42334956 4284440415
0.94753951 -1.1590849 0.42507952 4284900966
0.96982729 -1.1752808 0.42452782 4284243804
1.243138 -1.1547216 0.4228043 4291414473
0.94412321 -1.1224456 0.4254387 4284900966
1.2432621 -1.1341969 0.41912436 4291348680
1.2519205 -1.1147609 0.42359686 4289243304
0.94369483 -1.0732521 0.42445019 4283393359
0.95859641 -1.0743407 0.42481592 4284638562
1.2454104 -1.0665566 0.41966659 4290756543
1.2557764 -1.0796498 0.42418429 4287466893
0.94696409 -1.0411857 0.4195267 4284900710
0.97249991 -1.0237054 0.42429355 4284769636
1.0072714 -1.0010964 0.42393044 4284900966
1.2300277 -1.0231746 0.42388129 4289572269
1.2553494 -1.0405664 0.42584434 4290953922
0.98422378 -0.97715843 0.42466679 4283065674
1.0244807 -0.9740324 0.42466503 4284835173
1.071406 -0.96201712 0.42480731 4284900966
1.1267214 -0.95995736 0.42498019 4284966759
1.1741498 -0.97215408 0.42533848 4286611584
1.2103152 -0.99099261 0.42354152 4287861651
0.99005902 -0.9418844 0.42179173 4278216192
1.0265257 -0.9357875 0.423287 4281814327
1.0749102 -0.93548995 0.42497987 4283387727
1.1207834 -0.93959934 0.42464411 4282466625
1.1500131 -0.93456078 0.4157421 4278848010
0.98808974 -1.2119011 0.4700866 4283058762
1.0244612 -1.2270609 0.47306806 4284703587
0.94778478 -1.1603281 0.47144365 4283650899
0.97219324 -1.174422 0.47393644 4284178011
1.2433996 -1.1539048 0.47349897 4291414473
0.94475055 -1.1204667 0.47451651 4284900966
1.2475439 -1.138849 0.47274733 4291480266
1.251981 -1.1142634 0.47344968 4289309097
0.94352645 -1.0733621 0.47493383 4283065674
0.95896423 -1.0742594 0.47456527 4284573025
1.2475218 -1.0634511 0.47322208 4290756543
1.2557882 -1.0794472 0.47502217 4287466893
0.94699705 -1.0392852 0.47298598 4284966246
0.97179073 -1.0242846 0.47426414 4284769636
1.0056603 -1.006777 0.4718594 4284900966
1.2300513 -1.0224323 0.47469765 4289638062
1.2558304 -1.0414656 0.47628307 4290953922
0.98388636 -0.97711134 0.47492617 4283065930
1.0240781 -0.97371912 0.47379732 4284835174
1.0713903 -0.96086764 0.4728263 4284835173
1.1272444 -0.95971316 0.47402367 4284966759
1.1742635 -0.97272152 0.47480983 4286611584
1.2098742 -0.99049628 0.47429934 4287993237
1.0270265 -0.93606979 0.47395304 4281879864
1.0754899 -0.93476081 0.47446144 4283124555
1.1232079 -0.93928421 0.47611651 4282071867
0.98234719 -1.2101088 0.50621772 4280821800
0.9485029 -1.160959 0.50755471 4281874487
1.2435565 -1.1534152 0.50388664 4291348680
0.94437975 -1.1216204 0.50655532 4283716692
1.249325 -1.1334038 0.50440258 4291480266
1.2521795 -1.1140864 0.50638407 4289374890
0.94386882 -1.0754231 0.50818706 4283260493
0.95789975 -1.0731704 0.50757563 4283982936
1.2473465 -1.0621324 0.50721455 4290822336
1.2547076 -1.0802903 0.50810218 4286677377
0.94701761 -1.0392051 0.5061475 4284313692
0.97184372 -1.0230211 0.50811827 4284179291
1.0080649 -1.0050564 0.50623173 4284835173
1.2281234 -1.0197418 0.50679541 4288980132
1.2554352 -1.0407152 0.50875831 4282400832
0.98871475 -0.97969294 0.5073719 4282671173
1.0226034 -0.97507834 0.50783134 4284440926
1.0703915 -0.959584 0.50795907 4284769892
1.1272837 -0.95684338 0.50768417 4284704100
1.1738758 -0.97086018 0.50840706 4286085495
1.2096256 -0.99119544 0.5081706 4287137928
1.0246413 -0.93662792 0.50789708 4280762919
1.0781829 -0.93467408 0.50785637 4281742902
1.1200815 -0.94033408 0.50802284 4282071867
