# .PCD v0.7 - Point Cloud Data file format
VERSION 0.7
FIELDS x y z rgb
SIZE 4 4 4 4
TYPE F F F U
COUNT 1 1 1 1
WIDTH 284
HEIGHT 1
VIEWPOINT 0 0 0 1 0 0 0
POINTS 284
DATA ascii
-0.026076945 0.93182367 0.02401053 4286874756
-0.11932114 0.97786599 0.022356801 4287137928
-0.078931138 0.96935707 0.030613238 4285624689
-0.028538246 0.95590502 0.03189981 4285295724
0.079150774 0.96969157 0.029928921 4289440683
-0.12625951 1.0249056 0.029344216 4285295724
-0.079988658 1.0159503 0.031266931 4284835173
-0.14253834 1.0739321 0.030802339 4284900966
-0.14560775 1.1236466 0.031185901 4285032552
-0.073108584 1.2311229 0.025752785 4286282619
-0.026429066 1.2421114 0.030196657 4285164138
0.024872713 1.2421447 0.030950427 4285164138
-0.027426289 0.93818742 0.075114302 4285098345
0.018863356 0.94483078 0.074187897 4287072135
-0.11135022 0.98194915 0.076677337 4283591505
-0.078517929 0.96969712 0.075604402 4284573793
-0.02920023 0.95550108 0.075005688 4285229931
0.022892639 0.95872504 0.076482646 4286611584
0.07832367 0.97012877 0.075191908 4289243304
0.11079223 0.98964888 0.075850584 4286743170
-0.15327904 1.0495291 0.058645293 4284900966
-0.12531148 1.0253481 0.075511239 4284703587
-0.079072371 1.0166361 0.075686112 4284900966
0.12666111 1.0252388 0.074144177 4290822336
0.17073561 1.0298014 0.071836926 4282137660
-0.16042571 1.0803838 0.073788449 4284374622
-0.14255461 1.0741171 0.075546712 4284769380
0.13865013 1.0722834 0.074918263 4290822336
0.15957499 1.0793966 0.072591975 4289638062
-0.16384007 1.1197242 0.073683955 4285164138
-0.14579442 1.1228603 0.075456113 4284769380
0.15562673 1.1208123 0.075540818 4287795858
-0.12993784 1.1760806 0.075948313 4284835174
-0.1093698 1.2041081 0.075599402 4284900710
-0.070722602 1.2284523 0.074620768 4285032808
-0.025392795 1.2418138 0.077036425 4284966759
0.024917148 1.2422827 0.076474287 4285098345
0.077569202 1.2306937 0.074301153 4286940805
-0.02208752 1.2600529 0.071711369 4288387995
0.023535304 1.257633 0.072561644 4284900966
-0.10969715 0.94734955 0.12517938 4284900966
-0.073322698 0.92931402 0.12459268 4279638294
-0.028043399 0.93863636 0.12751451 4283914071
0.019393684 0.94538295 0.12821202 4287137928
-0.11136213 0.98187995 0.12756579 4282868295
-0.079097643 0.96974212 0.12691672 4284310366
-0.029367229 0.95534021 0.12557225 4285295724
0.023232812 0.95878577 0.12673278 4286611584
0.079056352 0.97063231 0.12569787 4288848546
0.11067678 0.98949826 0.12605217 4285098345
-0.12548113 1.0252733 0.12572221 4284506208
-0.078940794 1.0165632 0.12772042 4284900966
0.12734206 1.0254707 0.12536997 4290822336
0.17001779 1.0304626 0.12612469 4280953386
-0.16020861 1.079744 0.12365912 4284177243
-0.14257848 1.074096 0.12539175 4284769380
0.15964335 1.0784106 0.12345324 4289835441
-0.16385229 1.1199187 0.12363951 4282532418
-0.14572001 1.1233582 0.12479756 4284703587
0.14005074 1.1244484 0.1264454 4290690750
0.15594693 1.1177424 0.12583375 4287993237
-0.13019614 1.1755484 0.12607211 4284900709
-0.11464196 1.2112538 0.12818164 4283589202
-0.071046725 1.2278734 0.12467869 4283980376
-0.024791354 1.2418984 0.12699564 4284637794
0.026363216 1.2428761 0.12565693 4285098345
0.077441543 1.2304004 0.12454824 4285693810
0.10925548 1.2155638 0.12609713 4282284862
-0.022443688 1.2599969 0.12200235 4279505940
0.023400854 1.2576752 0.12215785 4284900966
-0.10748242 0.94485718 0.17910352 4284900966
-0.074665658 0.92860538 0.17503682 4279506708
-0.027604517 0.93834001 0.17720544 4283914072
0.018354673 0.94477475 0.17701702 4287006342
-0.11124195 0.98218518 0.17594783 4283064394
-0.078982688 0.96992075 0.17584135 4284375902
-0.027282687 0.95480609 0.17490038 4285295724
0.023575544 0.9588573 0.17656584 4286611584
0.079996057 0.97166169 0.17616703 4288848546
0.11058095 0.9895829 0.17589824 4285229931
-0.12571017 1.0261189 0.1760896 4284440415
-0.079762377 1.0168999 0.1739594 4284900966
0.12753153 1.0255024 0.17653634 4290888129
0.17006139 1.0304846 0.17611974 4280953386
-0.16039753 1.0803571 0.17375594 4284308829
-0.14264497 1.0741146 0.17571396 4284769380
0.16018891 1.078516 0.17570049 4289440683
-0.16422799 1.1201746 0.17383522 4282400832
-0.14582834 1.1235554 0.17550093 4284703587
0.13944866 1.1239172 0.17621924 4290690750
0.15590078 1.1182895 0.17473489 4287072135
-0.13016027 1.1754943 0.17547031 4284900709
0.12784827 1.1757785 0.17548662 4288322714
-0.11943519 1.2158114 0.17710209 4283000137
-0.071533769 1.2280558 0.17496377 4283783253
-0.024953684 1.2420648 0.17565593 4284572001
0.02622588 1.2424308 0.17547169 4285098345
0.076993577 1.2296762 0.17413186 4286021751
0.10821373 1.2151413 0.17606357 4282941256
-0.022814602 1.2599341 0.17219909 4279374354
0.023198944 1.2577391 0.1721936 4284900966
0.074034333 1.2502897 0.18022221 4278215936
-0.074273445 0.9282949 0.22501603 4279111694
-0.0276177 0.9383049 0.22643615 4283914072
0.018392837 0.94466859 0.22651039 4287072135
-0.11125249 0.98153692 0.22511774 4282868295
-0.079095446 0.96981812 0.22638901 4284375902
-0.028533522 0.95492959 0.22631547 4285295724
0.025401663 0.95592672 0.22180444 4287072135
0.080034666 0.9716177 0.22555321 4288848546
0.11053615 0.98959899 0.22625817 4285164138
-0.150314 1.0441263 0.22316015 4284900966
-0.12569121 1.0261432 0.22566013 4284440415
-0.078692414 1.0164256 0.22601493 4284900966
0.12695889 1.0256965 0.22591844 4290822336
0.1701047 1.0305072 0.22510098 4280953386
-0.16043846 1.0803512 0.22385108 4284308829
-0.14248316 1.0736185 0.22509027 4284769380
0.13856789 1.072305 0.22599237 4290559164
0.15976019 1.0787705 0.22640885 4289506476
-0.16425021 1.1211025 0.22316623 4282400832
-0.14587431 1.1236125 0.22574943 4284703587
0.13947526 1.1238199 0.22593489 4290624957
0.15622513 1.1178339 0.22533686 4287532686
-0.13012765 1.175768 0.22510505 4284900966
0.12773438 1.1760573 0.22517766 4288322714
-0.11772462 1.2134485 0.22676006 4283327822
-0.072796807 1.2272365 0.22543885 4283914839
-0.024882792 1.2417665 0.22561145 4284572001
0.026344977 1.2422248 0.22581004 4285098345
0.076716363 1.2291054 0.22473492 4286153081
0.1072278 1.2149434 0.22407545 4283466064
-0.023197155 1.2598658 0.22188213 4279374354
0.022907477 1.2578317 0.22266752 4284900966
0.072964907 1.2508907 0.22587276 4278215936
-0.073576786 0.92858082 0.27601224 4279375123
-0.027641248 0.93823582 0.27615479 4283848279
0.018362552 0.94452572 0.27561516 4287072135
-0.11093725 0.98089689 0.27512634 4283000137
-0.07895302 0.96983927 0.27660212 4284375902
-0.028523859 0.95496589 0.27622142 4285295724
0.024479158 0.95322013 0.27581838 4287401100
0.080171868 0.97139823 0.27617341 4288848546
0.11058455 0.989191 0.27599069 4285098345
-0.15043549 1.0442719 0.27365321 4284900966
-0.12508041 1.0260345 0.276124 4284440415
-0.078282438 1.0162009 0.27975354 4284900966
0.12746938 1.0253094 0.27520198 4290822336
0.17015328 1.030537 0.27601683 4280953386
-0.16056196 1.0805073 0.27375916 4284243036
-0.14158225 1.071032 0.27600619 4284769380
0.13849108 1.0722375 0.27606425 4290624957
0.15982158 1.0795426 0.27597612 4289374890
-0.16394177 1.1211673 0.27381524 4282400832
-0.14571285 1.1244226 0.27494088 4284703587
0.15656422 1.1176463 0.27639389 4287466893
-0.12982436 1.1761645 0.27500001 4284900966
0.1268594 1.1780306 0.274032 4288915107
-0.15923367 1.203123 0.27404186 4278530565
-0.11997432 1.2152756 0.27440807 4282934856
-0.073296182 1.227247 0.27529848 4283914839
-0.024385605 1.2418499 0.2756587 4284703587
0.026563844 1.2417945 0.2765379 4285164138
0.075348772 1.2285793 0.27393776 4286808963
0.10599861 1.2050278 0.27095601 4288322202
-0.023582119 1.2597969 0.27181381 4279374354
0.021921242 1.2580873 0.27264109 4284900966
-0.070907898 0.92957598 0.32529917 4280032796
-0.028128829 0.93821311 0.32611057 4283650899
0.018645419 0.94441593 0.3251518 4287072135
-0.11113468 0.98102921 0.32560465 4282868295
-0.078813709 0.97017753 0.32706732 4284376158
-0.028456252 0.95500338 0.32636237 4285295724
0.024147367 0.95314682 0.32635644 4287335307
0.079476222 0.97035092 0.32578635 4288914339
0.11050105 0.98922497 0.32619476 4284835173
-0.12378427 1.0250567 0.32672209 4284374622
-0.078445815 1.0162882 0.32386065 4284900966
0.12730287 1.025723 0.325984 4290822336
0.17012404 1.0303817 0.32464465 4280953386
0.20096961 1.049271 0.32778707 4278848010
-0.15572557 1.0864301 0.31810647 4283321934
-0.14157453 1.0707712 0.32609153 4284703587
0.13819009 1.0717746 0.32587141 4290493371
0.16026919 1.0786825 0.32579422 4289506476
-0.15956581 1.1176653 0.31795859 4282598211
-0.14525464 1.1266894 0.32697487 4284637794
0.15714116 1.1186925 0.32622465 4287137928
-0.12923142 1.1782357 0.32614106 4284900966
-0.16158876 1.2039093 0.3230153 4278468100
-0.12061042 1.2148664 0.32531956 4282934857
-0.073762774 1.2266132 0.32468864 4283454288
-0.024683038 1.2419295 0.32608214 4284308829
0.025636975 1.2416948 0.32784185 4285098345
0.074089214 1.2272277 0.32369739 4286743170
0.10785136 1.2025511 0.32403687 4288387995
-0.026496137 1.2593851 0.3111293 4279374354
0.021659805 1.2581536 0.30728918 4284900966
-0.027851457 0.93793923 0.37480557 4283585106
0.019238383 0.94478583 0.37469655 4287072135
-0.11119058 0.98103499 0.37586963 4282407744
-0.078755252 0.97020417 0.3764216 4284244316
-0.027589593 0.95450073 0.37493542 4285295724
0.024278734 0.95314085 0.37577602 4287335307
0.079290517 0.97042519 0.37573639 4288914339
0.11055931 0.98901361 0.37585548 4285229931
-0.12383846 1.024377 0.37613359 4284374622
-0.077472575 1.0158606 0.37472937 4284900966
-0.02351914 1.006693 0.37713739 4284900966
0.12698418 1.0251505 0.37550133 4290756543
0.17031033 1.0307604 0.37451324 4280953386
-0.15123673 1.0912893 0.375664 4282269246
-0.14156921 1.0708104 0.37642092 4284769380
0.13813987 1.0720925 0.37530056 4290361785
0.16115391 1.0789683 0.37476963 4289045925
-0.15115842 1.1097546 0.37660494 4283782485
-0.14521503 1.1272618 0.37642491 4284572001
0.15778939 1.1168467 0.37325349 4287137928
-0.12943093 1.1787766 0.37658769 4284900966
-0.11751141 1.2146081 0.37506279 4283262542
-0.076177806 1.2252936 0.37274593 4284507487
-0.02639593 1.2414552 0.37046269 4284835173
0.02429245 1.2425016 0.37330887 4285032552
0.074715704 1.2261509 0.37560797 4286808963
-0.071003154 0.92958885 0.42498472 4280032796
-0.025446538 0.93587637 0.4246932 4283321934
0.019334748 0.94496578 0.42455196 4287072135
-0.11015335 0.97991872 0.42506188 4282869318
-0.078278162 0.97007668 0.42489552 4283915351
-0.028244469 0.95552212 0.4263714 4285164138
0.023755867 0.95316297 0.42644751 4287203721
0.079159565 0.97117954 0.42543355 4288651167
0.11030304 0.98895276 0.42587951 4285493103
-0.12264581 1.0256057 0.42423791 4284506208
-0.079114974 1.0164667 0.42667475 4284900966
0.12647189 1.0241858 0.42521599 4291019715
0.16960245 1.0312415 0.426521 4281348144
-0.15144327 1.0906911 0.42588964 4282006074
-0.14072213 1.0685706 0.42501315 4284637794
0.13846463 1.070047 0.42370093 4290032820
0.16234924 1.0760896 0.42472115 4288453788
-0.15156882 1.1084361 0.42413142 4282861383
-0.1445417 1.129195 0.42466536 4284440415
0.15941352 1.1192094 0.42069805 4285493103
-0.12970692 1.1790756 0.42464462 4284900966
0.13030253 1.1732284 0.42075488 4287536526
-0.12262105 1.219211 0.42196903 4282410560
-0.096989125 1.2191038 0.43169916 4284443487
-0.015055751 1.2462671 0.42600569 4284900966
0.025803579 1.2443621 0.42468953 4285032552
-0.023946287 0.93904126 0.47377101 4284111450
0.018162856 0.94496822 0.47549203 4286874756
-0.10940337 0.98223287 0.47317678 4282937672
-0.075678371 0.96717894 0.47445837 4283983448
0.022980236 0.95306093 0.47558475 4287269514
0.078457572 0.97359645 0.47567561 4289506476
0.10886312 0.990807 0.47548935 4290427578
-0.12416036 1.0284603 0.47676 4283650899
-0.077021576 1.0157161 0.47567615 4284900966
0.12534255 1.023008 0.4755218 4290953922
-0.15145928 1.0910219 0.47468662 4283914071
-0.14625731 1.066075 0.47482547 4283782485
0.13861179 1.0696118 0.47541529 4290032820
0.1640062 1.0724227 0.47663039 4288190616
-0.15140416 1.111336 0.47817951 4284900710
-0.1467364 1.1358286 0.47539616 4284835429
0.16181305 1.1222713 0.47324383 4284966759
-0.13018541 1.1788111 0.47448373 4284835430
-0.1272846 1.2253077 0.47567368 4281558579
-0.096690461 1.2193482 0.47459212 4284443487
-0.015141606 1.2462616 0.45472217 4284966759
-0.10796269 0.98720789 0.50764006 4281684533
0.078852974 0.97405869 0.50901431 4288455836
0.10821927 0.99089581 0.50877535 4287993493
-0.1250241 1.028783 0.50906438 4283387727
0.12600839 1.0235574 0.50760412 4289835441
0.16965158 1.0312225 0.50800467 4280821800
-0.15222971 1.0909408 0.50949734 4282269501
-0.14665502 1.0641609 0.50805312 4284111450
-0.15125556 1.1134462 0.50706321 4284639330
-0.14832556 1.1350586 0.5093897 4284312157
-0.13120282 1.1777036 0.50726938 4284639330
-0.12735435 1.225173 0.50646055 4281493041
-0.09644413 1.2195495 0.50999588 4283854424
