# .PCD v0.7 - Point Cloud Data file format
VERSION 0.7
FIELDS x y z rgb
SIZE 4 4 4 4
TYPE F F F U
COUNT 1 1 1 1
WIDTH 360
HEIGHT 1
VIEWPOINT 0 0 0 1 0 0 0
POINTS 360
DATA ascii
-0.022985836 -0.17233962 0.023056529 4287466893
0.024385691 -0.16942258 0.025410358 4287137928
-0.077461898 -0.12539184 0.02782494 4285493103
0.029784372 -0.14381005 0.030773494 4287664272
0.076023661 -0.12918773 0.028343687 4289177511
0.12197657 -0.11713125 0.026062215 4289901234
-0.12828378 -0.077277526 0.027942969 4285624689
0.12902963 -0.076415688 0.029904637 4290559164
0.16978507 -0.071773969 0.022633228 4288322202
-0.14461373 -0.027888289 0.029671488 4285032552
0.14022702 -0.027176436 0.030554472 4291348680
0.16978548 -0.022909351 0.023107814 4289111718
-0.14606786 0.026237797 0.029681757 4284966759
0.14109008 0.02664233 0.031072091 4290888129
0.16706727 0.02302146 0.02264587 4289703855
-0.12974149 0.078613505 0.027912563 4285493103
0.12591258 0.07695175 0.028987695 4289572269
-0.076404497 0.12446025 0.028247658 4285493103
-0.026672674 0.13734169 0.030998686 4284900966
0.024604935 0.1408781 0.030273804 4285032552
0.077421449 0.12852596 0.026082145 4287203721
-0.069467455 -0.16643175 0.072210036 4284045657
-0.021479525 -0.17033108 0.072585046 4285098345
0.021805884 -0.16546178 0.072552629 4286151033
0.058762748 -0.16102022 0.072628602 4287795858
-0.11033674 -0.10587398 0.073916517 4284769380
-0.076605 -0.12324392 0.07381393 4284966759
-0.026738944 -0.14061788 0.074304931 4285164138
0.029688921 -0.14384994 0.075558499 4287598479
0.076388568 -0.12850332 0.07512255 4289309097
0.11935174 -0.11104904 0.075160295 4290888129
-0.12727109 -0.076277599 0.073845729 4285032552
0.12892644 -0.076549724 0.07598155 4291019715
0.16379079 -0.067249611 0.075212568 4287730065
-0.15595429 -0.017901927 0.073662959 4284900966
-0.14478654 -0.0275678 0.07431177 4284900966
0.14010389 -0.026553648 0.074737243 4291348680
0.16409659 -0.020244444 0.074889518 4288782753
-0.15191156 0.024824614 0.073778003 4284900966
-0.1456062 0.027661888 0.075848997 4284900966
0.14012894 0.027094804 0.0743443 4290888129
0.15821716 0.020325979 0.073984951 4290888129
-0.15282431 0.088607997 0.075284451 4284900966
-0.12910989 0.078106932 0.074669771 4284966759
-0.097269654 0.099990174 0.056924615 4284900966
0.1247936 0.076315947 0.074361108 4289703855
0.15395159 0.050440386 0.07258679 4290756543
-0.123535 0.1162475 0.074675441 4284769380
-0.075611331 0.12351213 0.074319549 4284835173
-0.026437592 0.13678631 0.074017659 4284900966
0.024134159 0.14062572 0.073992319 4285032552
0.075458109 0.12815605 0.074842364 4286545791
0.10623913 0.10660502 0.075350091 4288322202
-0.01028336 0.15113965 0.073430911 4284900966
0.011461351 0.15067568 0.073879555 4284835173
-0.068492264 -0.16862714 0.12223719 4279505940
-0.021688569 -0.16992861 0.12293512 4282466625
0.020810407 -0.16545585 0.12287325 4285558896
0.058688421 -0.16110951 0.12300076 4287795858
-0.11023812 -0.10603516 0.12386458 4282861383
-0.076401085 -0.12270403 0.12454967 4284835173
-0.026962044 -0.14055929 0.12462682 4285164138
0.029736709 -0.14388344 0.12598009 4287532686
0.076472238 -0.12844601 0.12542962 4289243305
0.11928321 -0.10935835 0.125901 4290888129
-0.12717867 -0.076074682 0.12415728 4284769380
0.12981255 -0.075483762 0.12602323 4291019715
0.16388117 -0.067084543 0.12526509 4284243036
-0.15602167 -0.017487362 0.1240956 4284900966
-0.14401843 -0.028655486 0.12511469 4284900966
0.13997468 -0.026478764 0.12438998 4291348680
0.16420528 -0.019888185 0.1250433 4286677377
-0.15214747 0.024465738 0.12456234 4284900966
-0.1455158 0.028261457 0.12359173 4284835173
0.13987909 0.026958639 0.12481705 4290953922
0.15848199 0.020846615 0.12511843 4290888129
-0.15280472 0.088739544 0.12515596 4284900966
-0.12926884 0.078210041 0.12449264 4284507744
0.099675536 0.099380195 0.13212281 4289967027
0.12556542 0.074739002 0.12406244 4289769648
0.15395096 0.050513007 0.1226275 4290756543
-0.12337351 0.11631813 0.12465961 4282861383
-0.076046847 0.12335683 0.12466891 4284177243
-0.025897998 0.13678825 0.12420645 4284900966
0.024654524 0.14050028 0.1239382 4285032552
0.074829981 0.12886013 0.12472668 4286282619
0.10628403 0.10653448 0.12551571 4288322202
-0.10723813 0.1557233 0.12522776 4278848010
-0.010504991 0.15113948 0.12355123 4284900966
0.011315162 0.1507214 0.12368101 4284900966
-0.068023838 -0.16892299 0.17306866 4279505940
-0.020994714 -0.17053433 0.17380665 4282466625
0.020493003 -0.16562158 0.17319517 4285558896
0.05575902 -0.15801381 0.1718967 4287861651
-0.1084287 -0.10732541 0.17516777 4283190348
-0.076339394 -0.12309953 0.1743882 4284835173
-0.027198505 -0.1405919 0.1745193 4285164138
0.029771475 -0.14391962 0.17565253 4287532686
0.076737285 -0.12861487 0.17451905 4289243304
0.11929993 -0.10945266 0.17603885 4290888129
-0.12710387 -0.076123811 0.17388244 4284769380
0.12846805 -0.075894959 0.17646933 4291019715
0.1639723 -0.066917777 0.17558959 4284243036
-0.15605325 -0.017261686 0.17398998 4284900966
-0.14366655 -0.029391441 0.17434001 4284900966
0.1400937 -0.02719669 0.17531641 4291348680
0.16407458 -0.02059041 0.17521393 4286414205
-0.15246345 0.023859853 0.17408219 4284900966
-0.14628099 0.026267083 0.17461163 4284900710
0.14078011 0.027198112 0.17540094 4290888385
0.15843077 0.021449795 0.17540814 4290822336
-0.15278527 0.088870965 0.17500584 4284900966
-0.1298096 0.078349292 0.17406657 4284442207
0.12464703 0.075416163 0.17450732 4289769904
0.15228328 0.053644527 0.17385995 4290624957
-0.12217533 0.11577369 0.17441918 4283124555
-0.076447487 0.12329519 0.17423859 4284177243
-0.026466822 0.13677655 0.17477281 4284900966
0.025317753 0.14058453 0.17465504 4285032552
0.076631479 0.12734444 0.17526676 4287006342
0.10626344 0.10654733 0.1749959 4288256409
-0.10702131 0.15591489 0.17455105 4278848010
-0.089091465 0.16892637 0.17394881 4278848010
-0.010721596 0.15113935 0.17256211 4284900966
0.011174454 0.15077196 0.17373912 4284900966
-0.067075558 -0.17317486 0.22132999 4279505940
-0.021594439 -0.1701044 0.22244696 4282400832
0.020989235 -0.16581172 0.22320406 4285493103
0.055742837 -0.15806937 0.22249219 4287861651
-0.10756685 -0.10788558 0.22310202 4283387727
-0.076278515 -0.12279974 0.22441833 4284835173
-0.027338712 -0.14053421 0.22439115 4285098345
0.02959528 -0.14389221 0.22551316 4287466893
0.076775238 -0.12845744 0.22472478 4289243304
0.11934235 -0.10936365 0.22590153 4290888129
-0.12731752 -0.076235861 0.22343433 4284769380
0.12756889 -0.076634251 0.22601029 4291019715
0.16390617 -0.067038588 0.22541849 4284177243
-0.15608211 -0.017246449 0.2235264 4284900966
-0.14355084 -0.02971893 0.22439122 4284900966
0.14043213 -0.027882172 0.22555093 4291348680
0.16415061 -0.020038223 0.2254267 4286545791
-0.15255553 0.024033954 0.22403562 4284900966
-0.14628984 0.02623168 0.22471488 4284900710
0.14000189 0.026939904 0.2228577 4290822592
0.15854231 0.02110979 0.2242921 4290888129
-0.15276538 0.089003958 0.22542544 4284900966
-0.1301351 0.077521615 0.22459306 4284704355
0.12639374 0.074557811 0.22270526 4289769648
0.15186641 0.054484755 0.22685342 4290624957
-0.12217647 0.11582322 0.22439198 4283058762
-0.075885803 0.12345687 0.22382116 4284177243
-0.027342368 0.13682574 0.22314769 4284900966
0.02511408 0.14061223 0.22481576 4285032552
0.075212002 0.12858173 0.22419362 4286677377
0.10631692 0.10662612 0.22481591 4288190616
-0.10680425 0.1561065 0.22386543 4278848010
-0.088489175 0.16926114 0.22391041 4278848010
-0.010811092 0.15111969 0.22304687 4284900966
0.011468801 0.15080762 0.22351894 4284900966
-0.067025557 -0.16952914 0.27060446 4279505940
-0.020794893 -0.16948119 0.27321434 4282598211
0.020604985 -0.16588172 0.27284837 4285493103
0.057659164 -0.15825193 0.2738854 4287927444
-0.10778308 -0.10782695 0.2733759 4283321934
-0.075974144 -0.12255376 0.2742548 4284900966
-0.027370121 -0.14055441 0.27401409 4285032552
0.02963141 -0.14374469 0.2749671 4287466893
0.076840296 -0.12851234 0.27476069 4289243304
0.11940125 -0.1090212 0.27580681 4290888129
-0.12776719 -0.076783754 0.27313775 4284572001
0.12973362 -0.074551567 0.27581176 4291019715
0.16415291 -0.06658747 0.27534476 4284243036
-0.15614882 -0.017163355 0.27370837 4284900966
-0.14421454 -0.030037651 0.27220568 4284900966
0.14040671 -0.028118961 0.27461347 4291348680
0.16421442 -0.019805541 0.27453271 4286545791
-0.15256697 0.024651963 0.27435157 4284900966
-0.14638795 0.025680715 0.27347454 4284900710
0.14051531 0.02655673 0.27319753 4290822336
0.15859012 0.020730423 0.2748293 4290888129
-0.15274599 0.089134529 0.2749368 4284900966
-0.13003547 0.077187948 0.27386174 4284769892
0.12819034 0.073757388 0.27394041 4289769648
0.15186636 0.054549266 0.27189913 4290624957
-0.12614849 0.11799307 0.27390778 4282400832
-0.075324617 0.12380207 0.27411002 4284176987
-0.027439829 0.13667108 0.27412412 4284900966
0.024765372 0.14059658 0.2736237 4285032552
0.073170677 0.1301339 0.27493486 4286348412
0.10653625 0.10659712 0.27466419 4288124823
-0.10658143 0.15630296 0.27440351 4278848010
-0.087886497 0.16959617 0.27388531 4278848010
-0.010656053 0.15131256 0.27299047 4284900966
0.013014621 0.15098891 0.27061355 4284835173
-0.066959262 -0.16957895 0.32182875 4279505940
-0.020762613 -0.16940084 0.3233538 4282532418
0.020329747 -0.16608244 0.32298538 4285427310
0.057982296 -0.15782467 0.32239455 4287927444
-0.10772767 -0.10800648 0.32372138 4283387727
-0.07590159 -0.12247635 0.32418391 4284835173
-0.027256761 -0.14058298 0.32428533 4285032552
0.029577542 -0.14373598 0.32530954 4287466893
0.076986894 -0.12851214 0.32438111 4289243304
0.11977573 -0.10872813 0.32558116 4290888129
-0.12823416 -0.077500507 0.32352832 4284769380
0.12837216 -0.072700642 0.32575881 4290953922
0.16266055 -0.06983494 0.32567599 4285098345
-0.15621631 -0.017180007 0.32352322 4284900966
-0.14400768 -0.031670697 0.3241154 4284900966
0.14037575 -0.027923647 0.32426858 4291348680
0.16429365 -0.019380618 0.32482964 4286545791
-0.15278135 0.024547279 0.32410991 4284900966
-0.14619678 0.026036235 0.32331407 4284900966
0.1405347 0.026369998 0.32348344 4290822592
0.15871793 0.021032199 0.32445484 4290888129
-0.15272604 0.08926744 0.32531288 4284900966
-0.12981425 0.076847717 0.32404819 4284835429
0.12879525 0.073861942 0.32366082 4289769648
0.15186636 0.054620482 0.32160664 4290624957
-0.12665874 0.11879502 0.32462162 4282137917
-0.075172611 0.12408596 0.32421806 4284111450
-0.027507914 0.13657193 0.32365179 4284900966
0.025010504 0.14054123 0.32370502 4285032552
0.074331529 0.1291061 0.32418007 4286808963
0.10653868 0.10667517 0.32392597 4288124823
-0.10636127 0.15649709 0.32431597 4278848010
-0.087284304 0.16993096 0.32387346 4278848010
-0.010714745 0.1517185 0.32301202 4284900966
0.018168092 0.1513119 0.32314903 4284835173
-0.066969618 -0.16958684 0.37209862 4279505940
-0.020550396 -0.17001848 0.3728219 4282466625
0.020717414 -0.16455282 0.37294671 4285493103
0.057954531 -0.15789069 0.37273934 4287927444
-0.10686637 -0.11015415 0.37209502 4282729797
-0.076181106 -0.12256464 0.37428066 4284835173
-0.027148994 -0.14059465 0.37396601 4285032552
0.029191123 -0.14390829 0.37503964 4287401100
0.076889314 -0.1289963 0.37496421 4289177511
0.11979517 -0.10868908 0.37591484 4290164406
-0.12805723 -0.077726007 0.37372813 4284638050
0.12809771 -0.073312752 0.37598795 4290230199
0.16275327 -0.069678053 0.37541553 4279440147
-0.15624242 -0.017140662 0.37356263 4284769380
-0.14517263 -0.028403815 0.37259051 4284769380
0.14034763 -0.02750911 0.37450463 4291348680
0.16375144 -0.019402117 0.37417242 4285427310
-0.15276361 0.024256043 0.37418452 4284900966
-0.14629775 0.025911164 0.37331304 4284900966
0.14058615 0.028727155 0.37419242 4290756799
0.15855241 0.020767802 0.37535596 4290888129
-0.15270656 0.089398697 0.37507662 4284900966
-0.12990673 0.076934628 0.37339783 4284769892
0.12944439 0.074330769 0.37398276 4289638062
0.15203975 0.054371372 0.36975363 4290624957
-0.1252145 0.117442 0.37472934 4282400832
-0.075105943 0.12448952 0.37334123 4284111450
-0.027722741 0.13654304 0.37427598 4284900966
0.024823604 0.14047308 0.37400684 4285032552
0.073307998 0.1300332 0.37394041 4286216826
0.10656615 0.10660008 0.3746635 4288124823
-0.10614128 0.15669112 0.37421948 4278848010
-0.086684108 0.17026517 0.37387457 4278848010
-0.010953235 0.15171833 0.37224862 4284900966
0.017780805 0.15136638 0.37195772 4284900966
-0.066932932 -0.1696102 0.42653036 4279505940
-0.021351868 -0.16987897 0.42323878 4282269246
0.020293545 -0.16472268 0.42242834 4285427310
0.057971161 -0.15791784 0.42214733 4287927444
-0.10896809 -0.10951038 0.42277598 4281874488
-0.076393142 -0.12266178 0.42412546 4284835173
-0.027064936 -0.14057411 0.42381445 4285032552
0.029045407 -0.14481369 0.4239206 4287203721
0.077914834 -0.12916103 0.42330676 4289177511
0.11877947 -0.10860302 0.42377618 4290230199
-0.12790911 -0.078006737 0.4238081 4284506208
0.12950686 -0.076477058 0.42355865 4290098613
0.16315483 -0.071894571 0.42381904 4278913803
-0.15629208 -0.017300535 0.42362818 4284572001
-0.14487398 -0.030907506 0.42420045 4284637794
0.14160486 -0.025713073 0.42315862 4291282887
0.16136464 -0.02613892 0.42451209 4284769380
-0.1527469 0.024417911 0.42408302 4284637794
-0.14630051 0.02607003 0.4232116 4284900966
0.14120044 0.027612831 0.42390677 4290822592
0.15698507 0.021401526 0.4228701 4291019715
-0.1526868 0.089530692 0.42511421 4284900966
-0.12974085 0.078317277 0.42417526 4284835429
0.12924403 0.074083775 0.42353871 4289440683
0.15394732 0.050947119 0.42198604 4290756543
-0.12402591 0.11672174 0.42423823 4282729797
-0.075082757 0.12472978 0.4238258 4284111450
-0.02748628 0.13664621 0.42366064 4284900966
0.024925711 0.14058472 0.42403477 4285032552
0.073143914 0.13031578 0.4234108 4286282619
0.10661192 0.10673345 0.42376831 4288059030
-0.011197793 0.15171812 0.4228031 4284900966
0.017372156 0.15142372 0.4234733 4284900966
-0.0669019 -0.16962986 0.47225073 4279505940
-0.021302843 -0.17093116 0.47231123 4282269246
0.019965686 -0.1648643 0.47241446 4285558896
0.058950096 -0.15713653 0.47255605 4287993237
-0.1091367 -0.10933609 0.47331715 4281874488
-0.076350838 -0.1240179 0.47191077 4284835174
-0.027063249 -0.14107715 0.47313258 4285032552
0.027267769 -0.14651176 0.47249216 4286874756
0.079588734 -0.12954417 0.47227699 4289111718
0.10498571 -0.10711972 0.46835244 4290361785
-0.12868717 -0.07766705 0.47267276 4284440415
0.12686108 -0.07641717 0.47205058 4290624957
0.15349719 -0.060299158 0.45427793 4278913803
-0.15652439 -0.017416626 0.47293499 4284506208
-0.14512016 -0.03004564 0.47194234 4284506208
0.14194635 -0.025296651 0.47321221 4291348680
0.1596767 -0.024519622 0.47127387 4285756275
-0.15278366 0.022455174 0.47226569 4284506208
-0.14640626 0.02536571 0.47330254 4284900966
0.1404071 0.028123854 0.47339213 4290822592
0.15671594 0.021683862 0.47212923 4290888129
-0.15267366 0.0896184 0.45836461 4284900966
-0.12833612 0.077594794 0.4715099 4284835430
0.12951271 0.073864475 0.47269052 4289374890
0.15394673 0.051023722 0.4747315 4290756287
-0.12046199 0.11540045 0.46796623 4283848535
-0.074822448 0.12508096 0.47211269 4284506208
-0.026046507 0.13485453 0.47052741 4284835174
0.02607426 0.14025937 0.47224087 4285032552
0.074849866 0.1289992 0.47274822 4286348412
0.10698976 0.10661715 0.4728651 4288059030
-0.011437225 0.15171798 0.47230276 4284835430
0.0169909 0.15147729 0.47151452 4284900966
-0.066922396 -0.16963102 0.50646645 4279505940
-0.021575788 -0.17259781 0.50559485 4285098345
0.022143578 -0.16670687 0.50595391 4288190616
0.056344062 -0.15773681 0.50675935 4288519581
-0.10640133 -0.10840195 0.50792092 4287401100
-0.081544481 -0.12624693 0.50439906 4285427310
-0.026964227 -0.145081 0.50467449 4285032552
0.024001854 -0.14743775 0.50316709 4287335307
0.076403975 -0.13600604 0.50548869 4289243304
0.10572964 -0.10809553 0.50501233 4290427578
-0.13057359 -0.077606387 0.50710201 4286875011
0.12767154 -0.068780079 0.50639981 4291217094
-0.15320355 -0.020588228 0.50254923 4284769380
-0.1448015 -0.032239817 0.50663888 4285427310
0.14091641 -0.030774219 0.50534195 4291217094
0.16165973 -0.023065239 0.5070402 4282828870
-0.15269747 0.0027554035 0.50679952 4278848010
-0.1454087 0.026445676 0.50340813 4284900966
0.14093101 0.026688231 0.50550604 4290625981
0.15719344 0.025208931 0.50558192 4288331163
-0.12840894 0.075843215 0.50293863 4284900966
0.1295893 0.07305795 0.50633293 4289310633
0.15394646 0.051069498 0.50622225 4289710768
-0.028677145 0.13181593 0.50680822 4284835429
0.025898714 0.13916102 0.50491756 4285032553
0.073986933 0.12911566 0.50716501 4285826932
0.10681954 0.10691435 0.5077011 4287733393
-0.011593014 0.15171778 0.50450277 4284966246
0.016705334 0.15151739 0.50752157 4283787349
