# .PCD v0.7 - Point Cloud Data file format
VERSION 0.7
FIELDS x y z rgb
SIZE 4 4 4 4
TYPE F F F U
COUNT 1 1 1 1
WIDTH 340
HEIGHT 1
VIEWPOINT 0 0 0 1 0 0 0
POINTS 340
DATA ascii
-1.1757107 -0.12282147 0.028982092 4285624689
-1.1279784 -0.13596703 0.028851347 4285032552
-1.0718924 -0.13808538 0.029650168 4286479998
-1.0226384 -0.12935406 0.029532848 4288651167
-0.9781667 -0.11742099 0.022640474 4288848546
-1.2241883 -0.074501634 0.029094791 4285887861
-1.1841403 -0.087331049 0.026233183 4286479998
-0.97047919 -0.078190759 0.028652685 4290295992
-1.2417808 -0.028892986 0.029076375 4285164138
-0.96437931 -0.026015829 0.030791657 4291282887
-1.2455226 0.028541373 0.028699532 4285164138
-1.2332199 0.078449301 0.028979637 4286414205
-1.2177753 0.12065568 0.025425669 4287335307
-1.1795431 0.13142143 0.030328128 4285756275
-1.1271682 0.14257941 0.030658834 4285032552
-1.0758218 0.14140299 0.031470824 4285098345
-1.0242599 0.12977932 0.028028402 4287137928
-1.1269749 0.16656938 0.022184366 4286874756
-1.111734 -0.15159194 0.074536465 4285098345
-1.0770439 -0.15427622 0.075101376 4285624689
-1.0409514 -0.15086713 0.077363774 4287598479
-1.2081283 -0.10540463 0.078158103 4284900966
-1.174577 -0.12193412 0.075692013 4284637794
-1.1286614 -0.13623658 0.075678535 4284900966
-1.0734402 -0.13742729 0.075388454 4286414205
-1.023962 -0.12882736 0.07542406 4288585374
-0.98283929 -0.10634658 0.075845383 4287269514
-1.2230287 -0.074207358 0.075529844 4285032552
-1.1851294 -0.092135504 0.072909385 4284900966
-0.97165877 -0.077648036 0.075955123 4290493371
-0.94355083 -0.061438408 0.074159734 4287664272
-1.2544661 -0.018497048 0.074572735 4284900966
-1.2414161 -0.029219475 0.073461764 4284900966
-0.9665525 -0.02452144 0.075318947 4291348680
-0.94364876 -0.027166862 0.074293964 4291414473
-1.2558464 0.024218686 0.073771305 4284900966
-1.2454191 0.028534524 0.073860355 4284771172
-0.95803231 0.026498349 0.076322384 4290822336
-0.94643921 0.02427629 0.074662782 4289835441
-1.2519661 0.065151885 0.074272685 4286677377
-1.2326502 0.078425206 0.07525827 4285298028
-1.011447 0.086425617 0.077128217 4289901234
-0.97605145 0.073988713 0.075913124 4289177511
-1.2117674 0.11805586 0.075795002 4286085752
-1.1793336 0.13096069 0.076772854 4284769380
-1.1270008 0.14262941 0.075694218 4284769380
-1.07565 0.14149742 0.076547757 4285032552
-1.0251142 0.12780692 0.075063907 4286940549
-0.99294877 0.1064434 0.074179716 4288124823
-1.1786414 0.15811139 0.080479182 4286874756
-1.1291455 0.15598918 0.076439194 4285229931
-1.0811559 0.15244405 0.073153272 4284900966
-1.111921 -0.15157928 0.12497743 4284637794
-1.0768846 -0.15428153 0.12610379 4284374622
-1.0410597 -0.15094325 0.12855744 4287598479
-1.2075921 -0.10591202 0.13081174 4284900966
-1.1749917 -0.12333144 0.12497233 4284177243
-1.1277759 -0.13573267 0.12561683 4284834917
-1.0729392 -0.13792904 0.12543073 4286348412
-1.0236701 -0.12862006 0.12652077 4288585374
-0.98303032 -0.1057649 0.12707317 4285953654
-1.2230428 -0.073956065 0.12532569 4284835173
-1.1857108 -0.091821246 0.12785269 4284900966
-0.97164559 -0.07751862 0.12623712 4290427578
-0.9435699 -0.061559658 0.12830988 4287072135
-1.2541673 -0.019517649 0.12448177 4284900966
-1.2414377 -0.028754793 0.12481059 4284900966
-0.96653306 -0.024463251 0.12667908 4291348680
-0.94349712 -0.027353922 0.12600349 4291414473
-1.2559893 0.024370689 0.12369602 4284900966
-1.2452888 0.028661799 0.12378846 4284378206
-0.95799541 0.026546966 0.12723507 4290822336
-0.94644624 0.024397951 0.12498613 4289835441
-1.2522943 0.064072415 0.12406381 4284900966
-1.2314249 0.079449855 0.12493018 4283263309
-1.0118424 0.086743414 0.12431209 4289901234
-0.97566408 0.074616842 0.12557487 4289243304
-0.93228722 0.075747222 0.12763329 4288651167
-1.2134134 0.116242 0.12690076 4284245340
-1.1790278 0.13066176 0.12681375 4284243036
-1.1270461 0.142546 0.12615003 4284769380
-1.0756805 0.14147612 0.12677103 4285032552
-1.0250481 0.12754127 0.12608914 4286875012
-0.99325854 0.1063817 0.12442282 4288124823
-1.1777043 0.1586778 0.13106059 4278848010
-1.1289002 0.15548065 0.12687568 4283979864
-1.0810614 0.15247396 0.12328088 4284900966
-1.1120042 -0.15140705 0.17289726 4285229931
-1.0770339 -0.15434736 0.17479081 4284111450
-1.0411595 -0.15101314 0.17559269 4287598479
-1.2060431 -0.10731638 0.17900558 4284900966
-1.1746368 -0.12316859 0.17578019 4284177243
-1.1280682 -0.13523014 0.17526695 4284769380
-1.0727063 -0.13829808 0.17494288 4286414205
-1.0229867 -0.12878604 0.17531648 4288387995
-0.9815492 -0.10523286 0.17577185 4285558896
-1.2229967 -0.074006088 0.17615664 4284835173
-1.1861205 -0.091533728 0.17841943 4284900966
-0.97130287 -0.077594757 0.17602023 4290559164
-0.94358373 -0.061659288 0.17733558 4287072135
-1.2541887 -0.019561369 0.17543185 4284900966
-1.2415314 -0.029348774 0.17529756 4284900966
-0.96557695 -0.02501558 0.17502002 4291348680
-0.94343925 -0.027532309 0.17599273 4291414473
-1.2561879 0.024005683 0.17402513 4284900966
-1.2454251 0.028288579 0.17391655 4284378206
-0.95772076 0.027098751 0.175883 4290822336
-0.94685167 0.023749342 0.1749943 4289967027
-1.2537401 0.059001569 0.17777675 4284900966
-1.2312696 0.080003411 0.17479786 4283263309
-1.0122368 0.087060668 0.17149861 4289901234
-0.9753288 0.073895611 0.1751413 4289243304
-1.2125628 0.11802701 0.17641287 4284113754
-1.1791935 0.13085718 0.17595075 4284111450
-1.127064 0.14246514 0.17539346 4284835173
-1.0754948 0.14144981 0.17693014 4285098345
-1.0244691 0.12714316 0.17559057 4286940549
-0.99362117 0.10685582 0.1745978 4288190872
-1.1786608 0.15811448 0.17690694 4278848010
-1.129275 0.15585878 0.17694947 4283848278
-1.0807722 0.15259179 0.17393318 4284900966
-1.112571 -0.15136452 0.22321016 4285164138
-1.0771223 -0.15432903 0.22521883 4284243036
-1.0412691 -0.15108995 0.22725634 4287598479
-1.2061051 -0.10729418 0.22580691 4284900966
-1.17397 -0.12288284 0.22620562 4284177243
-1.1285756 -0.13468938 0.22526342 4284769380
-1.0726357 -0.13817619 0.22524656 4286414205
-1.0223876 -0.12877165 0.2254204 4287927444
-0.98159045 -0.10517083 0.22567566 4285558896
-1.2226748 -0.073207252 0.22541958 4284835173
-1.186735 -0.091089524 0.2301538 4284900966
-0.97074735 -0.077756613 0.22523229 4290559164
-0.94359672 -0.061756328 0.22570464 4287006342
-1.2543237 -0.018691137 0.22490266 4284900966
-1.2420492 -0.029220978 0.22423296 4284900966
-0.9664588 -0.024372905 0.22553912 4291348680
-0.94341516 -0.027804811 0.22492163 4291414473
-1.2567314 0.024403239 0.22424375 4284900966
-1.2456946 0.027746314 0.2244053 4284378206
-0.95803618 0.02659834 0.22577435 4290822336
-0.94812441 0.019134354 0.22460207 4290559164
-1.2542703 0.057193339 0.22451897 4284900709
-1.2317581 0.079792812 0.22504364 4283394383
-1.0126749 0.087412998 0.223931 4289901234
-0.97492808 0.073692806 0.22458674 4289309097
-0.93252468 0.074802518 0.22087757 4288651167
-1.213213 0.11681554 0.22668396 4284179803
-1.179092 0.13099119 0.2255688 4283980120
-1.1271135 0.14235507 0.22506483 4284835173
-1.075532 0.14133264 0.22621201 4285098345
-1.0253005 0.12773675 0.22424981 4286940549
-0.99323088 0.10705085 0.22374147 4287994005
-1.1786958 0.15811114 0.22816385 4278848010
-1.1286505 0.15560231 0.22676109 4283979864
-1.0803626 0.15280798 0.22410123 4284900966
-1.112892 -0.15127948 0.27290207 4285164138
-1.0772097 -0.15438743 0.27529812 4284177243
-1.0413787 -0.15116671 0.27889532 4287598479
-1.2061716 -0.10727039 0.27595976 4284900966
-1.1739162 -0.12297958 0.27587441 4284111450
-1.1290787 -0.13567169 0.27138874 4284769380
-1.0717779 -0.13894397 0.27274811 4286479998
-1.0223414 -0.12907226 0.27508727 4287927444
-0.98165619 -0.10515401 0.2756345 4285558896
-1.2221968 -0.073152833 0.27618366 4284835173
-1.1873772 -0.090661138 0.27883166 4284900966
-0.97073013 -0.077738576 0.27544504 4290559164
-0.94267154 -0.063397422 0.27111584 4286348412
-1.2533666 -0.017702755 0.26665008 4284900966
-1.2425935 -0.027596712 0.27520555 4284900966
-0.96595329 -0.024452416 0.27575138 4291348680
-0.94347489 -0.028041914 0.27527514 4291414473
-1.2553536 0.023394404 0.27131245 4284900966
-1.2457362 0.027931072 0.27406952 4284312925
-0.95773119 0.027100282 0.27641952 4290822336
-0.94796407 0.0192046 0.27462918 4290361785
-1.2540584 0.05802539 0.26366141 4283459153
-1.2309172 0.080242701 0.27441806 4283263053
-1.0131131 0.087765455 0.27636653 4289901234
-0.97488678 0.073675767 0.27499852 4289309097
-1.2126555 0.11724321 0.27549973 4283915607
-1.1783851 0.13234676 0.27599168 4284045913
-1.1271629 0.14231323 0.27534562 4284769380
-1.0754611 0.14116633 0.27631581 4285098345
-1.025888 0.12843484 0.27506399 4286874756
-0.99268174 0.10663418 0.27399296 4287928468
-1.1787763 0.15809853 0.27793136 4278848010
-1.1279849 0.15595867 0.27579057 4283979864
-1.0801499 0.15292704 0.2737231 4284900966
-1.1122928 -0.15114237 0.32266179 4285361517
-1.0773079 -0.15442856 0.32523602 4284177243
-1.0414784 -0.15123653 0.32586551 4287598479
-1.2061824 -0.10728021 0.3250148 4284835173
-1.1743158 -0.12386347 0.32648185 4284045657
-1.1289793 -0.13766876 0.32535702 4284637794
-1.0690557 -0.14318879 0.32560211 4286743170
-1.0221797 -0.12908946 0.32543513 4287927444
-0.98178327 -0.10521347 0.32571161 4285624689
-1.2218397 -0.073976524 0.32690847 4284769380
-1.1876531 -0.090541102 0.32548711 4284900966
-0.9707185 -0.077644914 0.32559937 4290559164
-0.940633 -0.067098185 0.3241705 4284835173
-1.2507179 -0.015380192 0.32717341 4284835430
-1.2421449 -0.02791268 0.32469535 4284900966
-0.96557015 -0.024671752 0.3243252 4291348680
-0.94350326 -0.028278254 0.32629752 4291414473
-1.2533469 0.022648223 0.32229683 4284900966
-1.2457353 0.027485782 0.32378089 4284312925
-0.95798779 0.026693456 0.32624733 4290822336
-0.94797552 0.019135047 0.32459882 4290493371
-1.2304995 0.079181537 0.32544178 4283395407
-1.0135514 0.088117883 0.32880518 4289901234
-0.97537839 0.073736891 0.32491171 4289309097
-0.93256366 0.074095212 0.33003846 4288585374
-1.2123088 0.11714359 0.32575056 4283915351
-1.1774507 0.13237667 0.32627538 4284177499
-1.1270939 0.14223674 0.32590467 4284769380
-1.0752708 0.14123474 0.32598284 4285098345
-1.0266955 0.12733659 0.32465351 4286874756
-0.99258775 0.10569632 0.32379666 4287730321
-1.170427 0.15690929 0.32513016 4281413937
-1.126163 0.15631145 0.3251673 4283979864
-1.0830271 0.15238212 0.32166106 4284900966
-1.1123782 -0.15114149 0.37285396 4285493103
-1.0773913 -0.15450706 0.37541452 4284243036
-1.0415866 -0.15131247 0.37694153 4287598479
-1.2052 -0.10821176 0.3770102 4284900966
-1.1746933 -0.12526861 0.37318751 4283979864
-1.1289171 -0.13917926 0.37427384 4284572001
-1.0702354 -0.14324214 0.37635887 4286743170
-1.0221857 -0.12900937 0.3751294 4288059030
-0.98202568 -0.10531371 0.37530819 4285624689
-1.2216522 -0.077271707 0.37259978 4282137660
-1.1886768 -0.089776814 0.36238182 4284900966
-0.97087258 -0.078153126 0.37550038 4290559164
-0.94075364 -0.067385867 0.37774631 4284835173
-1.2507436 -0.015158916 0.37727496 4280427300
-1.2429203 -0.032662429 0.36792541 4282795590
-0.96668947 -0.0230377 0.37607032 4291348680
-0.9435122 -0.028265184 0.37552124 4291348680
-1.2544121 0.025996486 0.37258554 4280919081
-1.24424 0.027859682 0.37152886 4283072074
-0.95767587 0.02729677 0.37561235 4290822336
-0.94741541 0.020773737 0.37528181 4290164406
-1.2273316 0.080247693 0.37263119 4282284094
-1.0139456 0.088435113 0.37600258 4289901234
-0.97622204 0.074080192 0.37583753 4289243304
-0.93315279 0.070800677 0.37506831 4288453788
-1.2091831 0.11813741 0.37293759 4283917655
-1.1773362 0.1317874 0.3761692 4283789909
-1.1266837 0.14177096 0.37688735 4284769380
-1.0755554 0.14107804 0.37639853 4285098345
-1.0266204 0.1254198 0.37654668 4286940549
-0.99424899 0.10535188 0.37244037 4287532686
-1.169122 0.15673257 0.36979893 4288322202
-1.1251615 0.15660495 0.37642634 4285690482
-1.0891218 0.15245964 0.37630796 4284900966
-1.1150877 -0.15104137 0.42514619 4285229931
-1.078529 -0.15360263 0.42178884 4284637794
-1.0416632 -0.15136614 0.41304231 4287598479
-1.2052456 -0.10819662 0.4111236 4284900966
-1.1751297 -0.13136892 0.41973385 4282598211
-1.133846 -0.14754446 0.42051318 4283716692
-1.0644776 -0.14247525 0.42364475 4287203721
-1.0232307 -0.12817705 0.42415792 4288519581
-0.98427564 -0.10578726 0.4219068 4287006342
-1.2208562 -0.079725839 0.41752803 4281874488
-0.97157335 -0.077624984 0.42423835 4290690750
-0.94085836 -0.067639828 0.42556706 4284835173
-1.2507658 -0.014968604 0.42036152 4279440149
-1.2459394 -0.040416777 0.41674483 4279440147
-0.96670675 -0.022575097 0.42570993 4291348680
-0.94336033 -0.026449695 0.42311347 4291348680
-1.2554767 0.025899362 0.42564362 4278307841
-1.2426455 0.029512255 0.42579681 4282157628
-0.95718998 0.026274223 0.42386144 4290888129
-0.94672996 0.023906218 0.4242506 4289769648
-1.2237076 0.079187781 0.42415753 4281174316
-1.01434 0.088752508 0.42320266 4289901234
-0.97595733 0.074410282 0.42498854 4289243304
-0.93229926 0.074152626 0.42402548 4288651167
-1.2088482 0.11308811 0.42044455 4281156141
-1.1770078 0.13068715 0.42155716 4283199308
-1.1270142 0.14252515 0.42283541 4284637794
-1.0737453 0.14283098 0.42198548 4285098345
-1.0225596 0.12430101 0.42423034 4287137928
-0.99360925 0.10467303 0.42132255 4287795858
-1.1503762 0.15201913 0.42416865 4284900966
-1.122985 0.1550339 0.42539409 4284900966
-1.0946976 0.15424542 0.42391479 4284900966
-1.1170624 -0.15112051 0.47328743 4284966759
-1.081113 -0.15153453 0.47399187 4285361517
-1.1710563 -0.13420391 0.47085372 4282006074
-1.1372899 -0.14747152 0.47225356 4283519313
-1.0609969 -0.1410473 0.474388 4287795858
-1.023068 -0.12711199 0.47430849 4288519581
-0.98384273 -0.10670999 0.47498173 4287072135
-1.2090055 -0.08574798 0.47244605 4284900966
-0.97202104 -0.077524893 0.4741551 4290690750
-0.94096327 -0.067893885 0.47338209 4283321934
-0.96667665 -0.022804054 0.47453812 4291348680
-0.94302052 -0.02527489 0.4751288 4291348680
-1.244483 0.01997149 0.45289856 4279218703
-0.95685339 0.025483705 0.47509399 4290888129
-0.94646573 0.024911918 0.47508433 4289769648
-1.2193012 0.083355688 0.47764811 4282006074
-1.0147785 0.089104988 0.47565007 4289901234
-0.97615266 0.075015366 0.47437519 4289309097
-1.2169365 0.11480358 0.48158935 4279111182
-1.1756065 0.13473232 0.47687975 4283782485
-1.1271136 0.14332817 0.4743453 4284374622
-1.0729399 0.14439039 0.47335908 4285098345
-1.0210804 0.12370754 0.47419247 4287137928
-0.99264932 0.10327081 0.47729915 4288387995
-1.1505418 0.15198722 0.4746412 4284900966
-1.1258066 0.15623942 0.47871402 4284835173
-1.094537 0.15595163 0.47660199 4284900966
-1.1199156 -0.15103631 0.50709373 4283650899
-1.0802259 -0.15170325 0.50735867 4286216826
-1.1685623 -0.13560911 0.506805 4281940281
-1.1353201 -0.14805578 0.50598413 4282400832
-1.0621133 -0.14328896 0.50794494 4286940549
-1.0212919 -0.12631617 0.50750345 4288388251
-0.9851265 -0.10619202 0.50787818 4286479998
-1.211457 -0.082405545 0.50687712 4284900966
-0.97167116 -0.077864654 0.50811595 4290361785
-0.94103622 -0.068071425 0.50684941 4281282351
-0.96266299 -0.02509228 0.50851464 4290230199
-0.94402343 -0.021533158 0.5076611 4289243304
-1.2197282 0.082831144 0.5092048 4281940281
-1.2171304 0.11464715 0.51137149 4279111182
-1.1772853 0.13246407 0.50826275 4282400832
-1.1241907 0.14374998 0.50517654 4284572001
-1.0711331 0.14421426 0.50803828 4284440415
-1.0214621 0.12362215 0.50884432 4287269514
-0.9933517 0.10368016 0.50944918 4287730065
-1.1506498 0.15196669 0.50759619 4285032552
-1.1267993 0.15617137 0.50823456 4283453520
-1.0966563 0.15619008 0.50577736 4284900966
