# .PCD v0.7 - Point Cloud Data file format
VERSION 0.7
FIELDS x y z rgb
SIZE 4 4 4 4
TYPE F F F U
COUNT 1 1 1 1
WIDTH 325
HEIGHT 1
VIEWPOINT 0 0 0 1 0 0 0
POINTS 325
DATA ascii
-1.1755184 -1.229862 0.025713962 4285624689
-1.1291772 -1.2443641 0.029025123 4285361517
-1.0714024 -1.2437668 0.030514631 4287532686
-1.0239235 -1.2276088 0.028635668 4289309097
-0.97583461 -1.2215735 0.024734544 4288782753
-1.2310296 -1.1726061 0.027598649 4285558896
-0.97128272 -1.1766515 0.028993193 4290624957
-0.93284464 -1.1726838 0.023414491 4289243304
-1.2444235 -1.125445 0.029391434 4284966759
-0.95930541 -1.126068 0.030577896 4291282887
-0.93323469 -1.1238277 0.025027867 4289769648
-1.2440082 -1.0701891 0.029548546 4284966759
-0.95601034 -1.0709999 0.029809019 4290756543
-0.93268329 -1.0779082 0.022859728 4289703855
-1.229059 -1.0207255 0.028295886 4285558896
-0.97140795 -1.0225583 0.029132893 4289506476
-1.1761006 -0.97198963 0.027951902 4285624688
-0.98130459 -0.98108375 0.024187446 4288519581
-1.1148642 -1.2510321 0.074888334 4284440415
-1.0821497 -1.2564876 0.073365293 4284308829
-1.0436643 -1.2627695 0.071811154 4279111182
-1.2053853 -1.2068987 0.075443231 4284900966
-1.1731799 -1.2275569 0.07329575 4284900966
-1.128244 -1.2447871 0.074068099 4285229931
-1.0716205 -1.2443337 0.075265944 4287137928
-1.0249655 -1.2261243 0.073994353 4289045925
-0.97665238 -1.2178761 0.074736021 4283124555
-0.94902945 -1.2025344 0.074857473 4280756007
-1.2298803 -1.1702995 0.076684363 4284835173
-0.97182697 -1.1752661 0.073870003 4290296248
-0.94122189 -1.1708791 0.075264528 4288585374
-1.2501223 -1.1040041 0.076833926 4284900966
-1.2452382 -1.1243038 0.075046226 4284835173
-0.95952141 -1.1267569 0.075279392 4291282887
-0.9391951 -1.1229478 0.074658141 4290624957
-1.2564365 -1.0880995 0.074631318 4281636659
-1.2439251 -1.070114 0.074169897 4284770148
-0.95634866 -1.0707965 0.074629165 4290756543
-0.94068885 -1.0807542 0.074836418 4291019715
-1.2546841 -1.0486783 0.073136255 4278372353
-1.2276106 -1.0209646 0.074595951 4284247132
-1.0079482 -1.0063179 0.076221354 4288585374
-0.97180307 -1.0231091 0.07445287 4289572269
-0.94494694 -1.0426013 0.074300542 4290559164
-1.2102838 -0.9927237 0.074982502 4285493103
-1.1759231 -0.97291994 0.075138435 4285230443
-1.1221961 -0.96347094 0.075058952 4284900966
-1.0707936 -0.96841091 0.075137727 4285624689
-1.0245028 -0.9729014 0.074579507 4287006342
-0.98624712 -0.98595649 0.07373555 4288651167
-1.1214142 -0.94846171 0.076905601 4284900966
-1.1148643 -1.2510606 0.12547377 4283979864
-1.080372 -1.2549554 0.12594455 4284572001
-1.0434858 -1.2627109 0.13272847 4279111182
-1.205265 -1.2060124 0.12536822 4284111450
-1.1731799 -1.2273995 0.12368003 4284900966
-1.127586 -1.2447692 0.12441724 4285229931
-1.0705913 -1.2443182 0.12533712 4287072135
-1.0251307 -1.2262392 0.12448474 4288980132
-0.97676629 -1.2179793 0.12522143 4281940281
-0.94897521 -1.2024736 0.12570372 4278913803
-1.2299466 -1.1703799 0.12606537 4284900966
-0.97152221 -1.174894 0.12610418 4290164406
-0.94102955 -1.1719624 0.12563263 4287927444
-1.2501123 -1.1043527 0.12696157 4284900966
-1.2452824 -1.1242937 0.12481094 4284900966
-0.95962054 -1.1268697 0.12621374 4291282887
-0.93919069 -1.1230597 0.12518445 4290624957
-1.2565221 -1.0888774 0.12732051 4281636659
-1.2450162 -1.0742462 0.12480406 4284704611
-0.95635486 -1.0707389 0.12526457 4290756543
-0.94056743 -1.0811285 0.12497095 4290756543
-1.2547945 -1.0490185 0.12793174 4278438146
-1.2276689 -1.0211483 0.12619795 4284182107
-1.0081747 -1.0061655 0.12415908 4288585374
-0.9720304 -1.0227317 0.12515257 4289506476
-0.94491017 -1.0425969 0.12441646 4290559164
-1.2103175 -0.99275893 0.12659718 4285493103
-1.175913 -0.9728629 0.12606347 4285230443
-1.1220391 -0.96344584 0.12548916 4284900966
-1.0709398 -0.9683786 0.12575936 4285624689
-1.0243702 -0.97287315 0.12521474 4287006342
-0.98611009 -0.98587781 0.12405889 4288651167
-1.1226224 -0.94848591 0.12624256 4284900966
-1.1152589 -1.2510092 0.17493889 4284111450
-1.0793159 -1.2552594 0.1738901 4284572001
-1.0433645 -1.2626674 0.17760709 4279111182
-1.2054557 -1.2058504 0.17528737 4284308829
-1.1732299 -1.2273866 0.17372146 4284900966
-1.1278237 -1.2446607 0.17451964 4285229931
-1.0703304 -1.2440882 0.17584488 4287203721
-1.0258973 -1.2269049 0.17438737 4289177511
-0.97678697 -1.2179626 0.17485824 4282006074
-0.94892156 -1.2024134 0.17593949 4278913803
-1.2275382 -1.1747695 0.17659724 4284900966
-0.97152656 -1.175158 0.17472517 4290164406
-0.94129443 -1.1721436 0.1759094 4287927444
-1.2501596 -1.1034657 0.17681967 4284900966
-1.2449099 -1.1262602 0.17597401 4284835173
-0.9594664 -1.1265848 0.17454529 4291282887
-0.93915105 -1.1232668 0.17524508 4290624957
-1.2581435 -1.0875409 0.17216946 4280787750
-1.2450866 -1.0744629 0.17482692 4284704611
-0.95593989 -1.0713118 0.17432845 4290756543
-0.94143295 -1.0796069 0.17492774 4290756800
-1.25489 -1.0493133 0.1752928 4278438146
-1.2277771 -1.0211979 0.17501593 4284247388
-1.0098826 -1.0052392 0.17619133 4288519581
-0.97202694 -1.022444 0.17481907 4289572269
-0.94487339 -1.0425923 0.174519 4290559164
-1.2102776 -0.99266946 0.17511795 4285493103
-1.1754274 -0.97318846 0.17549951 4285099113
-1.1222664 -0.96343499 0.1750924 4284900966
-1.0711538 -0.9681319 0.17508145 4285624689
-1.0242205 -0.97303408 0.17476405 4287006342
-0.98569053 -0.98590678 0.17344208 4288716960
-1.1216584 -0.94845515 0.17639749 4284900966
-1.0763181 -0.9458831 0.17385525 4283453520
-1.115118 -1.2510179 0.22493573 4284111450
-1.0793287 -1.2552514 0.22405404 4284572001
-1.0432332 -1.2626209 0.22610554 4279111182
-1.2059174 -1.2051806 0.2237267 4284177243
-1.1714914 -1.2281214 0.22142299 4284900966
-1.1276948 -1.2443864 0.22322832 4285295724
-1.070958 -1.2440743 0.22470528 4287137928
-1.026049 -1.227062 0.22506893 4289243304
-0.97679019 -1.217986 0.22502859 4282006074
-0.94886911 -1.2023548 0.22498922 4278913803
-1.2294776 -1.1701156 0.22308631 4284900966
-0.97142696 -1.1749114 0.22512144 4290164406
-0.94162649 -1.1721524 0.22523569 4287993237
-1.2502737 -1.1019553 0.21554478 4284900966
-1.2442983 -1.128018 0.22448643 4284900966
-0.95958465 -1.1277512 0.22457185 4291282887
-0.93840647 -1.1219608 0.22542338 4290559164
-1.2628725 -1.0823667 0.22297677 4278372353
-1.2449579 -1.074181 0.22463404 4284639330
-0.95605344 -1.0708266 0.22433798 4290756543
-0.94115067 -1.0800229 0.22503094 4290756543
-1.254989 -1.0496197 0.22450647 4278438146
-1.2277113 -1.0210825 0.22530122 4284247388
-1.009807 -1.0052418 0.22614531 4288519581
-0.97197717 -1.0224808 0.22474222 4289506476
-0.9448365 -1.0425876 0.22460814 4290559164
-1.2102965 -0.99259329 0.2264338 4285624432
-1.1773723 -0.97203583 0.22465578 4285099369
-1.123966 -0.96530199 0.22587162 4284900966
-1.0720302 -0.96697205 0.22532795 4285558896
-1.0241876 -0.9731555 0.22513561 4287006342
-0.98505229 -0.98754179 0.2239801 4288716960
-1.1215664 -0.94849485 0.2251758 4284900966
-1.0769125 -0.94619244 0.22445893 4283650899
-1.1151841 -1.2510015 0.27453414 4284111450
-1.0792428 -1.2552642 0.27359787 4284637794
-1.0431019 -1.2625741 0.27458414 4279111182
-1.2064383 -1.2048094 0.27390307 4284111450
-1.1713088 -1.2281857 0.27184293 4284900966
-1.1278044 -1.2442908 0.2730788 4285295724
-1.0710669 -1.2436759 0.27604327 4287203721
-1.0254408 -1.227054 0.27554977 4289111718
-0.97629642 -1.2173439 0.27481967 4282137660
-0.94881499 -1.2022941 0.27573723 4278913803
-1.229905 -1.1685637 0.27457395 4284900966
-0.97141027 -1.1748244 0.27466312 4290164406
-0.94126719 -1.1715952 0.27589142 4288124823
-1.2441794 -1.1279057 0.27433512 4284900966
-0.95656455 -1.1259288 0.27590609 4291282887
-0.93810177 -1.1218864 0.27582487 4290559164
-1.2607219 -1.0737628 0.28082156 4278372353
-1.2447357 -1.0741037 0.27461496 4284574049
-0.95635724 -1.0707575 0.27545223 4290756543
-0.94132864 -1.0796024 0.27512357 4290756543
-1.2550768 -1.0498915 0.26814523 4278438146
-1.2278193 -1.0210989 0.27522367 4284181851
-1.009732 -1.0052443 0.27578872 4288519581
-0.97194886 -1.02255 0.27477184 4289572269
-0.94479954 -1.042583 0.27468386 4290559164
-1.2102848 -0.99280912 0.27552417 4285493103
-1.1780668 -0.97256541 0.27557427 4285230699
-1.1238124 -0.96538132 0.27587602 4284900966
-1.0719405 -0.96694559 0.27560505 4285558896
-1.0242264 -0.97298717 0.27512088 4286940805
-0.98497349 -0.98759264 0.27385259 4288716960
-1.1213061 -0.94867557 0.27421638 4284900966
-1.076566 -0.9458614 0.27404028 4283453520
-1.1151879 -1.2509986 0.32516766 4283979864
-1.0792801 -1.255294 0.32379773 4284572001
-1.0429707 -1.2625276 0.32304296 4279111182
-1.2079279 -1.2023438 0.3249175 4283519313
-1.1727047 -1.2269708 0.31304565 4284900966
-1.1306486 -1.2436408 0.31930497 4285295724
-1.071806 -1.2436596 0.32571226 4287006342
-1.0246266 -1.2288723 0.32439342 4288387995
-0.97416562 -1.2147553 0.32535827 4282400832
-0.94876111 -1.2022339 0.32587594 4278913803
-1.2291956 -1.1693066 0.32394826 4284900966
-0.97133017 -1.1743609 0.32546201 4290164406
-0.94119418 -1.1713988 0.32586315 4288190616
-1.2443234 -1.1267583 0.32491767 4284900966
-0.95682377 -1.1263196 0.32526591 4291282887
-0.9380694 -1.1222285 0.32606485 4290559164
-1.2591164 -1.0671583 0.325169 4278372353
-1.2445664 -1.0743979 0.3248603 4284574048
-0.95591128 -1.0714779 0.32526124 4290756543
-0.94163293 -1.0786629 0.32550564 4290756799
-1.2277211 -1.0213592 0.32529834 4284051033
-1.008067 -1.0060526 0.32583493 4288585374
-0.97363812 -1.023463 0.32424912 4289506476
-0.94476283 -1.0425785 0.32474625 4290559164
-1.2088637 -0.99053419 0.32850385 4286216826
-1.1767447 -0.97246426 0.32606062 4284901735
-1.1240922 -0.96529686 0.32595357 4284900966
-1.071825 -0.96692353 0.32532167 4285558896
-1.0262706 -0.97526431 0.32490209 4286875012
-0.99105638 -0.9879427 0.31939447 4288387995
-1.1216288 -0.94868773 0.32342035 4284900966
-1.0767376 -0.94586861 0.32406235 4283453520
-1.1159723 -1.2509738 0.37276998 4283453520
-1.0826428 -1.2568736 0.37355876 4282927176
-1.0428396 -1.262481 0.37148193 4279111182
-1.2066513 -1.2010835 0.37486196 4284900966
-1.150526 -1.2428265 0.36897579 4284900966
-1.1236005 -1.2450904 0.36973727 4285690482
-1.0695678 -1.2445467 0.37213755 4286282619
-1.0234201 -1.2288567 0.37438846 4288059030
-0.97404099 -1.2149358 0.375025 4282400832
-0.94870836 -1.202175 0.3748309 4278913803
-1.2288566 -1.169739 0.37506086 4284900966
-0.97117651 -1.1750371 0.37512559 4290098869
-0.94127929 -1.1715083 0.37600338 4288256409
-1.2443653 -1.1265916 0.3748084 4284835173
-0.95665431 -1.126019 0.37548915 4291282887
-0.93798751 -1.1221279 0.37631789 4290559164
-1.2592084 -1.0677122 0.37516093 4278372353
-1.2446901 -1.0751262 0.37487304 4284508768
-0.9561156 -1.0706624 0.37509289 4290756543
-0.94158882 -1.0787694 0.37551019 4291085764
-1.2278621 -1.0213795 0.37550884 4283920216
-1.0078933 -1.006111 0.37611943 4288585374
-0.97438097 -1.0235969 0.37541085 4289506476
-0.94472611 -1.042574 0.37479523 4290559164
-1.2087061 -0.98974931 0.37565666 4286611584
-1.1758506 -0.97234607 0.37548772 4284638819
-1.1238257 -0.96540469 0.375956 4284900966
-1.0719405 -0.96692687 0.3752802 4285558896
-1.0271882 -0.97594887 0.37542099 4286874756
-0.99432981 -0.98929179 0.37516689 4288190616
-1.1228995 -0.94872755 0.37531972 4284900966
-1.1212838 -1.2505748 0.42459482 4279900698
-1.0832509 -1.2570204 0.42371053 4282137660
-1.0426953 -1.2624296 0.42474136 4279111182
-1.2070825 -1.2005831 0.4254306 4284900966
-1.0635105 -1.2473034 0.42451903 4284045657
-1.0230895 -1.2297823 0.42447817 4287861651
-0.9740175 -1.215112 0.42507595 4282400832
-0.94865388 -1.2021142 0.4254809 4278913803
-1.2289584 -1.1695734 0.42543584 4284900966
-0.97128022 -1.1747433 0.42535812 4290098869
-0.94116813 -1.1717948 0.42546582 4288124823
-1.2444366 -1.1264745 0.42493862 4284900966
-0.9553889 -1.1285545 0.42343041 4291348936
-0.93761474 -1.1226958 0.42632142 4290493372
-1.2593006 -1.0682936 0.42565489 4278372353
-1.2440578 -1.0718069 0.42532277 4284574049
-0.95712757 -1.0741787 0.42428017 4290690750
-0.94120598 -1.0797617 0.425515 4291151301
-1.2276608 -1.021441 0.424101 4283789397
-1.0080163 -1.0060009 0.42556199 4288585374
-0.9746483 -1.0232273 0.42502803 4289440683
-0.94468927 -1.0425694 0.42483079 4290559164
-1.2087814 -0.98994333 0.42515588 4286414205
-1.1752449 -0.97155088 0.42512506 4284573281
-1.1241001 -0.966066 0.42507273 4284835173
-1.0721916 -0.96710771 0.42551821 4285558896
-1.0275853 -0.97579038 0.42500064 4286874756
-0.99421185 -0.989052 0.42487651 4288190616
-1.1222103 -0.94867033 0.42610276 4284900966
-1.0778061 -0.9457981 0.42384806 4283453520
-1.1226996 -1.2506803 0.46741393 4280821800
-1.0829532 -1.2572211 0.47275838 4283387727
-1.0425514 -1.2623783 0.47797805 4279045389
-1.2073444 -1.200279 0.45620716 4284900966
-1.0611885 -1.2471329 0.46970561 4285953654
-1.0216557 -1.2269214 0.47241834 4288716960
-0.98399389 -1.2121729 0.46795008 4286151033
-0.94862163 -1.2020782 0.45539623 4278913803
-1.2273371 -1.1725912 0.45556611 4284900966
-0.97181457 -1.173683 0.47500917 4290954178
-0.9348346 -1.1754544 0.46827179 4283650899
-1.2449764 -1.1195614 0.46937439 4284900966
-0.95597613 -1.1290748 0.47487608 4291348936
-0.94044936 -1.1182978 0.47699031 4289769649
-1.2593912 -1.0688694 0.4752256 4278372353
-1.2438027 -1.0746462 0.47329581 4284247387
-0.95721054 -1.0733262 0.47465256 4290690750
-0.94114655 -1.0777365 0.47504991 4291085764
-1.2275274 -1.0211145 0.47470912 4283593810
-0.97432476 -1.0225147 0.4750796 4289309097
-0.94465256 -1.0425647 0.47485307 4290559164
-1.2092122 -0.98781806 0.47547635 4287006085
-1.1755176 -0.97121525 0.47442067 4284507489
-1.1266797 -0.9643209 0.47290143 4284835173
-1.0255256 -0.97214866 0.47379202 4286677633
-0.99404842 -0.98890001 0.47506326 4288190616
-1.1267197 -1.2509706 0.50686276 4283585106
-1.0836477 -1.2579966 0.50672984 4284572001
-1.0424727 -1.2623503 0.50700659 4278979596
-1.059765 -1.2472676 0.50665557 4287861651
-1.0228883 -1.2263284 0.50683981 4288980132
-0.99232644 -1.2076169 0.50774103 4289440683
-0.97248119 -1.1748942 0.50748783 4290164406
-0.93165809 -1.170131 0.50428766 4284900966
-1.2453492 -1.1171491 0.50598639 4284835173
-0.95563442 -1.130687 0.50798231 4291020227
-0.93909478 -1.1193981 0.50931728 4288588702
-1.2594508 -1.0692158 0.50745487 4278372352
-1.2443095 -1.0784656 0.50655061 4283920728
-0.95662469 -1.0744501 0.50873578 4289178023
-0.94270051 -1.0778525 0.50832111 4289382058
-1.226961 -1.0206838 0.50800174 4282810183
-0.97466701 -1.021968 0.50807792 4288258201
-0.94462967 -1.0425621 0.50611067 4290428087
-1.2089902 -0.98827511 0.50874215 4286811011
-1.1747656 -0.97170013 0.50847793 4283657298
-0.99367207 -0.98896462 0.50860393 4286416509
