# .PCD v0.7 - Point Cloud Data file format
VERSION 0.7
FIELDS x y z rgb
SIZE 4 4 4 4
TYPE F F F U
COUNT 1 1 1 1
WIDTH 345
HEIGHT 1
VIEWPOINT 0 0 0 1 0 0 0
POINTS 345
DATA ascii
-1.1236196 0.93243939 0.023872934 4287730065
-1.0748683 0.93264902 0.023288574 4288059030
-1.1773481 0.96717066 0.029570632 4285756275
-1.1273651 0.95492274 0.031669222 4285493103
-1.0701388 0.95909023 0.03084797 4287598479
-1.0247427 0.97142696 0.030238179 4288914339
-0.98144531 0.98128885 0.024422275 4289374890
-1.2302495 1.0192856 0.028884612 4285822068
-1.0070621 1.0082878 0.031388059 4287993237
-0.97288215 1.0229834 0.030003538 4290493371
-1.2467797 1.0759376 0.030751999 4285164394
-0.96160352 1.0715461 0.03016259 4291348680
-1.2466303 1.1242177 0.031167295 4285822068
-0.96351969 1.1269689 0.029947504 4290427578
-1.2319801 1.1743726 0.027550951 4285756275
-0.97110039 1.1765233 0.029932499 4289374890
-1.1733116 1.2324333 0.026625512 4286348412
-1.1279781 1.2423338 0.030145098 4285098345
-1.0721269 1.238054 0.029527094 4285427310
-1.0229857 1.2284029 0.029343292 4287006342
-0.9815976 1.2200084 0.023690915 4288190616
-1.0746347 1.2691724 0.023734888 4287401100
-1.1591061 0.94170892 0.075233191 4286874756
-1.1219597 0.93938506 0.075324595 4285690482
-1.074477 0.94327897 0.07697282 4284835173
-1.0356551 0.94567883 0.076916449 4286940549
-1.211205 0.98834193 0.075233266 4284704611
-1.1765374 0.9678449 0.075795636 4284379230
-1.1281457 0.9552961 0.076173462 4285427310
-1.0701686 0.95906925 0.07632082 4287466893
-1.0250053 0.97165644 0.075760454 4288716960
-0.98658228 0.98780763 0.073270842 4289111718
-1.2285811 1.0203986 0.076477103 4284050265
-1.0069169 1.0083538 0.075607635 4287993237
-0.9731009 1.0234131 0.074510328 4290690750
-0.94902354 1.0397854 0.07371559 4291217094
-1.2515823 1.0954559 0.075546756 4283199820
-1.2465173 1.0755627 0.076193631 4284573537
-0.96196109 1.0718411 0.07390523 4291414217
-0.94608146 1.0747452 0.07510525 4291414473
-1.2508175 1.1101439 0.076229095 4284900966
-1.246614 1.1239847 0.076380275 4285427310
-0.96370769 1.1280595 0.07383661 4290427578
-0.94707268 1.1223284 0.074976563 4290297016
-1.2295345 1.1730675 0.077349119 4285032552
-0.97229123 1.1758251 0.074652575 4289374890
-0.9424969 1.1601132 0.073283695 4290427578
-1.2040393 1.2079735 0.075670436 4284900966
-1.1716228 1.2303153 0.07749664 4284703587
-1.1277637 1.2426176 0.07469219 4284769380
-1.0719713 1.2385318 0.073134698 4285295724
-1.0231653 1.2283951 0.073727988 4286808963
-0.98944318 1.2160838 0.074543588 4287269514
-1.1239737 1.2614446 0.072646268 4283387727
-1.0743283 1.2643305 0.073670879 4282664004
-1.032204 1.2596515 0.071302429 4282729797
-1.1597042 0.94197941 0.12274149 4284966759
-1.1218551 0.93917465 0.12514886 4284637794
-1.0752177 0.9440912 0.1272922 4283979864
-1.0353832 0.94582486 0.12493674 4285361517
-1.2111775 0.98794001 0.12545241 4284704612
-1.1766597 0.96799481 0.126149 4284640354
-1.1272774 0.95490879 0.12633087 4285493103
-1.0675242 0.96250373 0.12636545 4287927444
-1.0246598 0.97183782 0.12623072 4288716960
-0.98678333 0.98667973 0.1235258 4287993237
-1.2285192 1.0200408 0.12659727 4284181339
-1.0067528 1.0084292 0.12560783 4287993237
-0.97291166 1.0232918 0.12474839 4290690750
-0.94838226 1.041561 0.12274899 4291282887
-1.2508857 1.0956731 0.12673269 4284377438
-1.2464404 1.0750301 0.12693803 4284639074
-0.96198899 1.0715883 0.12439878 4291414217
-0.9459374 1.0752431 0.12471333 4291414473
-1.2511165 1.1095399 0.12658955 4284246620
-1.2466751 1.1240348 0.12656824 4284900966
-0.96335053 1.1280204 0.12414967 4290427834
-0.94692826 1.1230731 0.12640931 4289772208
-1.2290049 1.1739174 0.12669399 4284900966
-0.97222412 1.1758225 0.12483557 4289309353
-0.94250983 1.1602486 0.12404986 4290427578
-1.2040819 1.2079577 0.1257232 4284835430
-1.1714525 1.2303568 0.12614919 4284440415
-1.1276201 1.2421819 0.12437218 4284835173
-1.0718662 1.2380023 0.12286717 4285361517
-1.0229514 1.2275236 0.1248047 4286874756
-0.98850733 1.2150865 0.12671478 4287203721
-1.1234131 1.2603705 0.12489341 4282137660
-1.0740094 1.2635955 0.12474008 4282006074
-1.0317427 1.2589608 0.12571496 4283058762
-1.1617677 0.94289654 0.17532916 4285032552
-1.1219803 0.93926972 0.17444417 4284769380
-1.0750011 0.94340312 0.17493278 4283914071
-1.0356672 0.94567508 0.1761466 4285361517
-1.2113308 0.98775399 0.17564055 4284770148
-1.1777793 0.96909517 0.17560653 4284640354
-1.128013 0.95530134 0.1745072 4285427310
-1.0677915 0.96183592 0.17474477 4287861651
-1.0249772 0.97168571 0.1760253 4288716960
-0.98684716 0.98709828 0.17491844 4288387995
-1.2292256 1.0209936 0.17671764 4284246620
-1.0069345 1.0087025 0.17427219 4288256409
-0.97282255 1.0234804 0.17433171 4290690750
-0.94831741 1.0417954 0.17153725 4291282887
-1.2508101 1.0940784 0.17661467 4284900966
-1.2464591 1.0752745 0.17631765 4284639074
-0.96199352 1.0715176 0.17423072 4291414217
-0.94619882 1.0751437 0.17428882 4291414473
-1.2510493 1.1089138 0.1758709 4284181083
-1.2466377 1.1239097 0.17633495 4284900966
-0.96330547 1.128202 0.17461234 4290427834
-0.94715041 1.1232733 0.17600419 4289706671
-1.2290561 1.1739196 0.17635365 4284900966
-0.97199309 1.1758438 0.17461003 4289309353
-0.94252264 1.1603787 0.17283867 4290427578
-1.2044618 1.2075404 0.17572114 4284900966
-1.171349 1.2304437 0.17730692 4284506208
-1.1277136 1.2421829 0.17532772 4284835173
-1.0722908 1.238189 0.17422701 4285361517
-1.0225834 1.2278254 0.17447181 4286874756
-0.98802185 1.2147502 0.17360134 4287203721
-1.1236204 1.259674 0.17608677 4282269246
-1.0733964 1.2642078 0.1736771 4281874488
-1.0318358 1.2593303 0.17058994 4282861383
-1.1629025 0.94349086 0.22523075 4285032552
-1.1220702 0.93942308 0.2245716 4284900966
-1.0749419 0.94328582 0.2248947 4283848278
-1.0338185 0.94656193 0.2262378 4286282619
-1.2099105 0.98751646 0.22444475 4284639074
-1.1779641 0.96888721 0.22581261 4284509280
-1.1282793 0.95521247 0.22538263 4285493103
-1.0697031 0.9590261 0.22547001 4287466893
-1.0249072 0.97161704 0.22571309 4288782753
-0.98733187 0.98692614 0.22449274 4288322202
-1.230015 1.0226057 0.22636621 4284115802
-1.0066406 1.0087222 0.22515486 4288190616
-0.97297722 1.0235167 0.22443213 4290624957
-0.9479171 1.0428206 0.22348395 4291282887
-1.250875 1.0937217 0.22617018 4284900966
-1.24672 1.0738564 0.2251066 4284573793
-0.96165621 1.0718621 0.2244963 4291414473
-0.94561607 1.0754666 0.22449134 4291414473
-1.250774 1.1093352 0.22564292 4284900966
-1.2468323 1.1254178 0.22519626 4284900966
-0.96322304 1.1281666 0.22430572 4290427834
-0.94679886 1.1236786 0.22621591 4290034868
-1.2298942 1.1736794 0.22472024 4284900966
-0.97178489 1.1760198 0.22448672 4289374890
-0.94253576 1.1605155 0.22420335 4290427578
-1.2055155 1.2074879 0.22773968 4284374622
-1.1738302 1.2301185 0.22117835 4283914328
-1.1279048 1.2420011 0.22543648 4284835173
-1.0726053 1.2383178 0.22473265 4285295724
-1.0221246 1.2278675 0.22454225 4286874756
-0.98825812 1.2155057 0.22429185 4287203721
-1.1234301 1.2597231 0.22591192 4282269246
-1.0728304 1.2632208 0.22446619 4282071867
-1.031119 1.2590227 0.22357234 4282992969
-1.1613636 0.94265544 0.25287837 4284966759
-1.1197718 0.94308323 0.27077544 4285164138
-1.0752282 0.94364774 0.27501231 4283979864
-1.0352842 0.94597089 0.27321661 4285690482
-1.204083 0.99161643 0.27607757 4284312413
-1.1743101 0.96932817 0.27417493 4284247900
-1.1283234 0.95532483 0.27602762 4285558896
-1.069844 0.95830524 0.27525812 4287335307
-1.0249166 0.97154069 0.27573487 4288848546
-0.98785824 0.98645949 0.27448842 4287795858
-1.2306483 1.0267251 0.27629036 4283592786
-1.0062625 1.0086544 0.27522412 4287993237
-0.97291785 1.02349 0.27454636 4290624957
-0.94810694 1.0421016 0.27256635 4291282887
-1.2509016 1.0936555 0.27647153 4284900966
-1.2474377 1.0693494 0.27685624 4284312157
-0.96190244 1.0714113 0.27440271 4291414473
-0.94570184 1.0752562 0.27520409 4291414473
-1.2509563 1.1098528 0.27566379 4284900966
-1.2482817 1.1297637 0.27668756 4284900966
-0.96452796 1.1280235 0.27463797 4290493371
-0.94627458 1.124059 0.27616635 4290888129
-1.2325445 1.1726638 0.27488279 4284900966
-0.97178459 1.1760386 0.27490383 4289374890
-0.94254875 1.1606472 0.27359253 4290427578
-1.2077389 1.2069191 0.26976612 4282927176
-1.1614784 1.2390008 0.27203959 4282598211
-1.1270665 1.242328 0.27421772 4284769380
-1.0722057 1.2383389 0.27516958 4285295724
-1.0219977 1.2275345 0.27445915 4286874756
-0.98826313 1.2152618 0.2745094 4287137928
-1.1228449 1.2605131 0.27460846 4282137660
-1.0728317 1.2640704 0.27381256 4281874488
-1.0318363 1.2594247 0.27129209 4282861383
-1.118085 0.94783688 0.32630497 4285361517
-1.0743136 0.94385964 0.32568899 4284045657
-1.0387135 0.94481248 0.32529151 4284308829
-1.2049581 0.99236822 0.3289991 4284247132
-1.1743712 0.96955574 0.32689911 4283788885
-1.1283939 0.95539701 0.32592723 4285558896
-1.069858 0.95903301 0.32407248 4287401100
-1.0254748 0.97257096 0.32568926 4288717216
-0.98660117 0.98850894 0.32417706 4287137928
-1.2296354 1.0248032 0.32682768 4283331150
-1.0060984 1.0087296 0.32524034 4287993237
-0.97340459 1.0236259 0.32429361 4290624957
-0.94804031 1.0422152 0.32308483 4291282887
-1.2509282 1.0935891 0.32673961 4284900966
-1.2475538 1.0694609 0.32597518 4284312157
-0.96189678 1.0714939 0.32441014 4291348681
-0.94537354 1.075544 0.32423669 4291414473
-1.250989 1.1096581 0.32606822 4284900966
-1.2485316 1.1289799 0.32670036 4284900966
-0.96451485 1.1279439 0.32490963 4290493371
-0.94643134 1.1240472 0.32647312 4290888129
-1.2337556 1.1707873 0.32623452 4284900966
-0.97163337 1.1763759 0.32453778 4289374890
-0.94251204 1.1606863 0.3228451 4290427578
-1.2087457 1.2068813 0.32643825 4281874488
-1.1555096 1.2428486 0.32542363 4282137660
-1.1264714 1.2422535 0.32369661 4284769380
-1.0718323 1.2377156 0.32502684 4285361517
-1.0221943 1.2284123 0.32440585 4286808963
-0.98762661 1.2131432 0.32272768 4287006342
-1.1230516 1.2598213 0.32457009 4282335039
-1.0729975 1.263515 0.32360527 4282006074
-1.0311922 1.2593477 0.32388476 4282861383
-1.1192769 0.94755566 0.37440389 4285164138
-1.0768187 0.94471365 0.37318155 4284506208
-1.039731 0.94423568 0.36052996 4283321934
-1.2059044 0.99290776 0.3768295 4284247132
-1.1744161 0.9696455 0.37649575 4283658323
-1.1282592 0.95527768 0.37591681 4285690482
-1.0700321 0.9590829 0.37428674 4287335307
-1.0266825 0.9738546 0.37475729 4288651167
-0.98562211 0.98902565 0.374201 4285953654
-1.2296885 1.025031 0.37664807 4283461968
-1.0059348 1.0088049 0.37523106 4287993237
-0.9738186 1.0236493 0.37491503 4290559164
-0.9479562 1.0425224 0.37768391 4291282887
-1.250905 1.0930774 0.37657022 4284900966
-1.2477258 1.0701587 0.37649569 4284312157
-0.96194756 1.0714688 0.37469035 4291348680
-0.94537377 1.0758338 0.37441453 4291414473
-1.250937 1.1097356 0.37649083 4284900966
-1.2479855 1.1323651 0.3766332 4284900966
-0.96454507 1.1277888 0.37487713 4290493371
-0.94617033 1.1244429 0.37672979 4290888129
-1.2338965 1.1705865 0.37571636 4284900966
-0.97161484 1.1760888 0.37419081 4289309097
-0.94262397 1.1610069 0.37403065 4290427578
-1.2091446 1.2064047 0.37622395 4281874488
-1.1553979 1.2428958 0.37533563 4282137660
-1.125242 1.2417921 0.37465709 4284835173
-1.0719404 1.2378727 0.37568456 4285361517
-1.0224516 1.2282251 0.37476319 4286808963
-0.98532456 1.2105448 0.37396428 4287203721
-1.1217889 1.2597659 0.37552032 4282400832
-1.0730209 1.2644992 0.37422419 4281874488
-1.0318372 1.2595201 0.37229258 4282861383
-1.1192696 0.94738418 0.42469457 4285032552
-1.0787925 0.94835055 0.42609435 4286348412
-1.2075922 0.99367321 0.42402607 4283920215
-1.174612 0.96952045 0.42505473 4283330639
-1.1293212 0.95565194 0.42538092 4286151033
-1.0700995 0.9589904 0.42473742 4287203721
-1.0271726 0.97489524 0.42561108 4288519837
-0.98658615 0.9885534 0.4236595 4285295724
-1.2298017 1.0249872 0.42594287 4282808390
-1.0057728 1.0088791 0.4246127 4287993237
-0.97402734 1.0238872 0.42463773 4290559164
-0.94766194 1.043218 0.42396361 4291282887
-1.2507658 1.0909405 0.42608482 4284900966
-1.2475865 1.069029 0.42426753 4284050521
-0.96183401 1.0716654 0.42462769 4291348680
-0.94540131 1.075617 0.42463848 4291414473
-1.2510654 1.108323 0.42593598 4284900966
-1.248028 1.1326135 0.425861 4284900966
-0.96428645 1.1274431 0.42448339 4290427578
-0.94800782 1.1152607 0.42362759 4291151301
-1.2342162 1.1701502 0.42389295 4284900966
-0.97262907 1.1765758 0.42391872 4289309097
-0.94258726 1.161045 0.42290902 4290427578
-1.209473 1.2060124 0.41722521 4281874488
-1.1552849 1.2429435 0.42550135 4282137660
-1.12458 1.2419264 0.42532152 4284835173
-1.0714272 1.2382667 0.42534295 4285361517
-1.0227555 1.2284634 0.42406887 4286808963
-0.98610198 1.211663 0.42318711 4287795858
-1.1180888 1.2600837 0.42501521 4282729797
-1.0729401 1.2643316 0.42261738 4281940281
-1.0311185 1.2592121 0.42342454 4282992969
-1.1193092 0.94728297 0.47475868 4285164138
-1.0823473 0.94792098 0.47484872 4286085240
-1.2045242 0.98725384 0.47651455 4281305647
-1.1744627 0.96827573 0.47566 4282549314
-1.1310688 0.95532656 0.47649714 4287137928
-1.0702024 0.95864761 0.475348 4287006342
-1.0263475 0.97627139 0.4755387 4288519837
-0.98562443 0.98848176 0.47394955 4285229931
-1.2281553 1.0187323 0.47622204 4278427395
-1.0056088 1.0089544 0.47467044 4287993237
-0.9731071 1.0246189 0.47445923 4290559164
-0.94783723 1.0425695 0.47322577 4291282887
-1.2476735 1.0599235 0.47663459 4278425347
-0.962134 1.071471 0.47439989 4291348680
-0.94533163 1.0770218 0.47495177 4291414473
-1.250703 1.1141677 0.45182511 4284900966
-1.248111 1.1324148 0.45362067 4284900966
-0.96443737 1.128013 0.47362643 4290427578
-0.9476397 1.1154424 0.47620425 4291151301
-1.2329547 1.1729181 0.45864505 4284900966
-0.9730559 1.1769015 0.47411618 4289243304
-0.94260055 1.1611817 0.47414345 4290427578
-1.1543535 1.2411865 0.45681652 4283058762
-1.1188123 1.2407489 0.47267127 4284769380
-1.0731876 1.2380996 0.47312123 4285295724
-1.0223255 1.22877 0.47458944 4286743170
-0.98580909 1.2136835 0.4731448 4288124823
-1.1184732 1.2712764 0.46857324 4279440147
-1.0689777 1.2687589 0.4731549 4280427042
-1.0318382 1.2596152 0.47326195 4282861383
-1.1180171 0.94695741 0.50935918 4285295980
-1.0831461 0.9474948 0.50919992 4286677377
-1.2054102 0.98854619 0.50803083 4280586788
-1.1745557 0.96811622 0.50784194 4282555458
-1.1297026 0.95532316 0.50786632 4286220410
-1.0660883 0.9604097 0.50863165 4286678401
-1.0261736 0.97391605 0.50846457 4287862163
-0.9859128 0.98995423 0.50807297 4284835430
-1.2281756 1.0187401 0.5069046 4278427395
-1.0048008 1.0114429 0.50688422 4289045925
-0.97229028 1.0243345 0.50773495 4289835441
-0.94760954 1.0431385 0.50745386 4286151033
-1.2476912 1.0599568 0.5096395 4278425347
-0.9617908 1.0704768 0.5083105 4291151301
-0.94511342 1.0777743 0.50715029 4290624957
-0.9643237 1.1275442 0.50827914 4289309097
-0.94729203 1.1141472 0.50727522 4290624957
-0.97524327 1.1771601 0.50753939 4287861907
-1.1151642 1.2414529 0.50766599 4284572001
-1.070479 1.2370527 0.50705808 4285361517
-1.0229145 1.2295763 0.50744641 4285361517
-0.98786706 1.2143948 0.50550091 4287006342
-1.1144834 1.2746925 0.50570548 4279505940
-1.0697899 1.2691678 0.5071876 4279966491
-1.0309737 1.2595223 0.50886571 4280163870
