# .PCD v0.7 - Point Cloud Data file format
VERSION 0.7
FIELDS x y z rgb
SIZE 4 4 4 4
TYPE F F F U
COUNT 1 1 1 1
WIDTH 330
HEIGHT 1
VIEWPOINT 0 0 0 1 0 0 0
POINTS 330
DATA ascii
-0.074387856 -1.2248071 0.027703717 4285295724
-0.027791565 -1.2380298 0.02874558 4285098345
0.024748733 -1.2382407 0.027785923 4286282619
0.078292578 -1.2302668 0.02611704 4288716960
-0.12557553 -1.1726513 0.027595539 4285427310
-0.093218222 -1.1843169 0.026533533 4284835173
0.13187891 -1.176046 0.028168021 4290559164
-0.13836357 -1.1265184 0.029467167 4284966759
0.14711352 -1.1250488 0.029897455 4291217094
-0.14275096 -1.0740619 0.030018309 4284900966
0.14581202 -1.0712727 0.029378572 4290756543
0.16815014 -1.0771661 0.022586595 4289374890
-0.12988481 -1.0201514 0.028584603 4285690482
0.1305646 -1.0200434 0.02945042 4289374890
-0.07654421 -0.97225428 0.029505465 4285164138
-0.028054263 -0.96118826 0.030484395 4284966759
0.025509555 -0.95761406 0.031056726 4285164138
0.077408314 -0.97088879 0.028422579 4287203721
-0.025771281 -0.93311119 0.02546709 4286677377
0.021716189 -0.93129647 0.022921819 4287335307
-0.016023245 -1.2517048 0.072551578 4285822068
0.019852124 -1.255644 0.073341645 4287532942
0.057697345 -1.252647 0.075396791 4286677377
-0.10413145 -1.2074864 0.073727772 4284900966
-0.073162928 -1.2228986 0.074135788 4284835429
-0.026155923 -1.2377236 0.073962592 4285032552
0.025270456 -1.2380329 0.073127292 4286348412
0.078356385 -1.2304647 0.07483945 4289111718
0.10701523 -1.2073567 0.075013332 4290427578
-0.12360305 -1.1711438 0.074023038 4284835173
-0.092642128 -1.1811323 0.073206112 4284900966
0.13045961 -1.1746166 0.074600823 4291019971
-0.15591541 -1.1229513 0.07314907 4284900966
-0.13839699 -1.1265938 0.074265219 4284835173
0.14717114 -1.1248341 0.074788384 4291348680
0.15543525 -1.125971 0.074946031 4287927444
-0.15989289 -1.079275 0.073160425 4285887861
-0.14274332 -1.0741726 0.074339524 4284835173
0.14604977 -1.0718454 0.074632548 4290822336
0.16006862 -1.0792303 0.075623341 4287532686
-0.15584257 -1.037187 0.072881453 4288387995
-0.12911516 -1.0198052 0.074644141 4285295724
-0.088161476 -1.0057285 0.07449308 4284900966
0.12997897 -1.0203102 0.07548479 4289506476
0.15693165 -1.0376496 0.077037089 4290756543
-0.11151252 -0.98734134 0.07473167 4285427310
-0.076019377 -0.97274774 0.074841835 4284769380
-0.028242229 -0.96206802 0.075028263 4284835173
0.02540333 -0.9580012 0.075032659 4285098345
0.076095812 -0.97206885 0.074802779 4287006342
0.11117451 -0.99240106 0.075835332 4288453788
-0.061281599 -0.94260806 0.073866703 4284900966
-0.025986567 -0.93902618 0.074439712 4284966759
0.017902941 -0.93879098 0.074594215 4283979864
-0.015909396 -1.2516564 0.12220325 4285822068
0.020061035 -1.2556825 0.12311371 4285760371
0.057821058 -1.2526051 0.12514424 4286743170
-0.1035005 -1.2077632 0.12471402 4284900966
-0.073570848 -1.222929 0.12427555 4284835429
-0.026176235 -1.2377678 0.12365548 4285032552
0.025285551 -1.2380564 0.12279005 4286217338
0.079235837 -1.2304689 0.12516031 4289111974
0.10688906 -1.2073424 0.12505434 4290427578
-0.12360087 -1.1713581 0.12522611 4284835173
-0.092906877 -1.1809196 0.1239972 4284900966
0.13080402 -1.1742545 0.12480501 4291019971
-0.15528637 -1.1247106 0.12390395 4284900966
-0.1383841 -1.1261255 0.124989 4284835173
0.14718443 -1.1250385 0.12514502 4291348680
0.15495607 -1.1255832 0.12580432 4286874756
-0.1598506 -1.0784638 0.12315457 4283979864
-0.14282493 -1.073826 0.12461254 4284900966
0.14578469 -1.071028 0.12450337 4290756543
0.15898333 -1.0794123 0.12527896 4287993237
-0.15591553 -1.0373387 0.12230623 4279440147
-0.12835892 -1.0205865 0.1254738 4284308829
-0.088855475 -1.0054009 0.12385848 4284900966
0.12970231 -1.0206312 0.12546095 4289374890
0.15687893 -1.0374849 0.12431088 4290756543
-0.1117217 -0.98756003 0.12514287 4283979864
-0.076106131 -0.9725076 0.12542082 4284769380
-0.027810181 -0.96136755 0.12503204 4284835173
0.025589155 -0.95774508 0.1251284 4285164138
0.076164193 -0.97208214 0.12563637 4287072135
0.11046582 -0.99231863 0.12522307 4288453788
-0.06098659 -0.94244707 0.1250585 4284900966
-0.02623019 -0.93910223 0.12637831 4284835173
0.017704124 -0.93878132 0.12605409 4283124555
-0.015902039 -1.2516589 0.17288026 4285822068
0.020175522 -1.2556753 0.17316213 4285760372
0.057944726 -1.2525631 0.17485735 4286808963
-0.10551652 -1.2059925 0.17741393 4284900966
-0.07384491 -1.2229435 0.17399971 4284835429
-0.026299408 -1.2377822 0.17391053 4285032552
0.026251068 -1.2388675 0.17253506 4286348668
0.077651016 -1.2310795 0.174242 4289046181
0.10699867 -1.2073549 0.17489597 4290427578
-0.12380552 -1.172079 0.17345822 4284835173
-0.093167104 -1.1807106 0.17410931 4284900966
0.13100855 -1.1742842 0.17565675 4291019971
-0.1551422 -1.1253033 0.17296936 4284900966
-0.1383694 -1.1262628 0.17451644 4284900966
0.14718398 -1.1253035 0.17477837 4291348680
0.15637225 -1.1237199 0.1738131 4287137928
-0.15895642 -1.0790485 0.17403066 4283650899
-0.14271584 -1.0745761 0.17487824 4284900966
0.14584343 -1.0709144 0.17406112 4290822336
0.16013087 -1.0791566 0.17353116 4287532686
-0.1559508 -1.0373944 0.17281646 4278848010
-0.12985073 -1.0216062 0.17463508 4283848278
-0.088616677 -1.0061595 0.17331141 4284900966
0.13013287 -1.0202936 0.17410582 4289440683
0.15682615 -1.0373203 0.17156689 4290756543
-0.11158112 -0.98766595 0.17511041 4283848278
-0.075062558 -0.97312903 0.17491451 4284769380
-0.026745871 -0.96090698 0.17360041 4284835173
0.025330061 -0.95791757 0.17396806 4285164138
0.076187246 -0.97203875 0.17462657 4287072135
0.11112472 -0.99233377 0.17322025 4288453788
-0.061052103 -0.94237775 0.17459495 4284900966
-0.025508009 -0.93906105 0.17488639 4284769380
0.017962327 -0.93881989 0.17457248 4283124555
-0.015695896 -1.2519342 0.22239313 4285822068
0.019910065 -1.255872 0.22332734 4285825908
0.058069728 -1.2525206 0.22512095 4286743170
-0.10561639 -1.2057686 0.2231188 4284900966
-0.073614776 -1.2232031 0.22402258 4284769892
-0.025986072 -1.237965 0.22251123 4284966759
0.02640928 -1.2388419 0.22248846 4286283131
0.078008063 -1.2310995 0.22357954 4289045925
0.10683652 -1.2075053 0.22294776 4290427578
-0.12403382 -1.1725608 0.22436137 4284835173
-0.093424499 -1.1805036 0.22354929 4284900966
0.13117175 -1.1740601 0.22397259 4291085508
-0.15588342 -1.1229914 0.2224682 4284900966
-0.13836968 -1.1263983 0.22487114 4284835173
0.14722 -1.1251715 0.22474189 4291348680
0.15662833 -1.1227871 0.22559334 4287203721
-0.15848199 -1.0799706 0.22332336 4283650899
-0.14261384 -1.0746986 0.22473761 4284835173
0.14577268 -1.070631 0.22455122 4290756543
0.16008611 -1.0791786 0.22512574 4287532686
-0.15606397 -1.037647 0.22256888 4278848010
-0.13001321 -1.0215563 0.22527829 4283848278
-0.088852406 -1.0063845 0.22542593 4284900966
0.13007793 -1.0202289 0.22478665 4289374890
0.15676753 -1.0371374 0.22405382 4290756543
-0.11137147 -0.98742747 0.22465225 4283848278
-0.07456287 -0.97342646 0.22501698 4284769380
-0.026343778 -0.96049315 0.22485138 4284835173
0.025342012 -0.957919 0.22475801 4285164138
0.076657325 -0.97198695 0.22500686 4287006342
0.1103441 -0.99149925 0.22541608 4288519581
-0.061226238 -0.94228613 0.22462294 4284900966
-0.02594726 -0.93887472 0.22581257 4284769380
0.018793978 -0.93932354 0.2253556 4283321934
-0.015728204 -1.2520076 0.27229586 4285887861
0.019927839 -1.255926 0.27306974 4285825908
0.058193136 -1.2524786 0.27476615 4286808963
-0.10268302 -1.2076042 0.27372503 4284900966
-0.073372357 -1.2240027 0.27333972 4284769892
-0.026356071 -1.2377154 0.27279884 4284966759
0.026333548 -1.2391269 0.27209771 4286348924
0.078478806 -1.2316756 0.27338818 4288980132
0.10650752 -1.2081541 0.27297464 4290559164
-0.12380625 -1.1728071 0.27380276 4284769636
-0.091408186 -1.1820773 0.2757732 4284900966
0.13134421 -1.1735117 0.27508709 4291019971
-0.15605912 -1.1225821 0.27333182 4284900966
-0.13674219 -1.1282253 0.27445108 4284900966
0.1471671 -1.1251574 0.27440131 4291348680
0.15589792 -1.1216033 0.2745387 4287598479
-0.15931182 -1.0793107 0.27174941 4282861383
-0.1425104 -1.0744685 0.27459541 4284900966
0.14571467 -1.0704936 0.2738933 4290756543
0.1600301 -1.0790937 0.27626073 4287532686
-0.15614603 -1.0378298 0.27255002 4278848010
-0.13011231 -1.0217668 0.27476335 4283848278
-0.089571573 -1.0060697 0.27448383 4284900966
0.12988897 -1.020365 0.27524891 4289374890
0.15670888 -1.0369544 0.2765196 4290756543
-0.11148228 -0.98766631 0.27423266 4283848278
-0.075139716 -0.9728331 0.27405366 4284769380
-0.02627508 -0.96012825 0.27418658 4284769380
0.025417108 -0.95792657 0.27555278 4285164138
0.076918513 -0.97208351 0.27518609 4287006342
0.1107843 -0.99192101 0.27457535 4288453788
-0.06138625 -0.94250458 0.27493304 4284900966
-0.026003847 -0.9388116 0.27572295 4284769380
0.019070316 -0.93903017 0.27406475 4283256141
-0.011778606 -1.2513034 0.31877014 4286151033
0.020628542 -1.2565564 0.32049733 4286679425
0.058319472 -1.2524359 0.32554412 4286808963
-0.10469313 -1.2013024 0.32548657 4284900966
-0.06571193 -1.2310201 0.32041895 4283984728
-0.024325354 -1.2404804 0.30956584 4285164138
0.02852229 -1.2415044 0.31306329 4286743682
0.080105163 -1.2322763 0.32081875 4288980644
0.10785986 -1.2071913 0.32229152 4290559163
-0.1213658 -1.1701816 0.3252016 4284703587
-0.084677897 -1.1874701 0.32198367 4284900966
0.13164133 -1.1735116 0.32565564 4291085764
-0.13804005 -1.1261716 0.32466173 4284835173
0.14694737 -1.1256205 0.32513589 4291348680
0.15612105 -1.122189 0.32514268 4288848546
-0.16187465 -1.0707878 0.30097234 4281084972
-0.14271674 -1.0727452 0.32456005 4284900966
0.14594793 -1.0708631 0.32389399 4290756543
0.15897681 -1.0794663 0.32578844 4287927444
-0.15604387 -1.037392 0.30475965 4278848010
-0.12902725 -1.0228499 0.32455531 4284243036
-0.084792279 -1.0115383 0.32522291 4284900966
0.12973548 -1.0202962 0.32528618 4289243304
0.15627752 -1.0360913 0.32660392 4290756543
-0.10950112 -0.98761684 0.32345501 4284440415
-0.076172732 -0.9713192 0.32529071 4284703587
-0.027412672 -0.95980215 0.3250179 4284703587
0.025607882 -0.95771307 0.32513133 4285229931
0.076835684 -0.97205585 0.3252961 4287006342
0.11114873 -0.99240923 0.32580441 4288519581
-0.062660851 -0.94323361 0.32447094 4284900966
-0.02566617 -0.93874037 0.32453743 4284769380
0.019343179 -0.93889165 0.3248809 4283124555
0.028472375 -1.2607782 0.37443441 4281282351
0.058442783 -1.2523937 0.37512046 4286808963
-0.10452187 -1.2015243 0.37914255 4284900966
-0.073455617 -1.224691 0.37520215 4283133769
0.083747461 -1.2347952 0.37419716 4288719007
0.10769551 -1.2092952 0.37771598 4290559164
-0.11896142 -1.1718676 0.37434492 4284900710
-0.079263195 -1.1922797 0.37453568 4284900966
0.13183422 -1.17398 0.37588623 4291085764
-0.13767724 -1.1240792 0.37582523 4284769380
0.14703113 -1.1252046 0.37645957 4291348680
0.15640615 -1.1217769 0.37718502 4288716960
-0.1427204 -1.0727044 0.37485272 4284835173
0.14733183 -1.0737554 0.37534508 4290822336
0.1600251 -1.0789311 0.37413689 4287664272
-0.12804843 -1.0231261 0.37541878 4284637794
-0.084938347 -1.01171 0.3740716 4284900966
0.12932271 -1.0202453 0.37546739 4289243304
0.15697643 -1.0373056 0.37326464 4290756543
-0.10834692 -0.9876436 0.37505355 4284900966
-0.076305278 -0.97132951 0.3756665 4284703587
-0.026862655 -0.96012735 0.37493455 4284703587
0.025319561 -0.95783633 0.37398976 4285164138
0.076591551 -0.97210497 0.37514812 4286940549
0.11055329 -0.99238902 0.37501898 4288519581
-0.063511945 -0.94361985 0.37468213 4284900966
-0.025712378 -0.93858534 0.37619871 4284177243
0.019605828 -0.9388696 0.3756333 4282861383
0.028806066 -1.2607347 0.42509469 4279111182
0.058565877 -1.252352 0.42466331 4286874756
-0.10437636 -1.2017127 0.42474335 4284900966
-0.073481135 -1.2246526 0.42602766 4283199306
0.080977537 -1.2371545 0.42583987 4288784033
0.10508092 -1.2148293 0.42489266 4290427322
-0.11964322 -1.1709743 0.42564112 4284900710
-0.079932407 -1.1919096 0.42419633 4284900966
0.13262397 -1.1729399 0.42449555 4291086020
-0.1375854 -1.1240574 0.42471939 4284835173
0.14745408 -1.1278616 0.42387325 4291348680
0.15569447 -1.1211388 0.42537445 4289177511
-0.14264065 -1.0739869 0.42579409 4284703587
0.14766544 -1.0736042 0.42484772 4290822336
0.16006711 -1.0787863 0.42571554 4287927444
-0.1268912 -1.0224473 0.42378718 4284440415
-0.085084416 -1.0118818 0.42291313 4284900966
0.12981468 -1.0200714 0.42456782 4289309097
0.15654498 -1.0364429 0.42331153 4290756543
-0.1083737 -0.98770112 0.4250187 4284900966
-0.07689172 -0.97102082 0.4251377 4284769380
-0.02682187 -0.96005225 0.42569429 4284703587
0.025337486 -0.95784891 0.42427054 4284966759
0.076444112 -0.97166848 0.42404881 4286808963
0.11100786 -0.99227333 0.42410344 4288519581
-0.063724682 -0.94305885 0.42501521 4284900966
-0.025652733 -0.93935287 0.42490169 4283256141
0.021899637 -0.93985671 0.42536888 4282664004
0.029031247 -1.2607057 0.45870495 4279111182
0.058645725 -1.2523248 0.45670366 4286874756
-0.10420813 -1.2019306 0.47748914 4284900966
-0.071102284 -1.2259685 0.47444367 4282674499
0.080462612 -1.2357509 0.46127239 4289901234
0.10588298 -1.2126623 0.46911693 4291019715
-0.11990996 -1.1719718 0.47401768 4284900710
-0.079656154 -1.1922807 0.47173521 4284900966
0.13543183 -1.1700047 0.47334754 4291152069
-0.13795152 -1.1248009 0.4751274 4284900709
0.14809653 -1.133654 0.47251752 4291348423
0.15665968 -1.1215994 0.47486115 4288716960
-0.1423174 -1.0726446 0.47359794 4284769380
0.14789106 -1.0705235 0.47340098 4290493371
0.15963966 -1.0782132 0.47623557 4288190616
-0.12607625 -1.0225792 0.47453815 4284177243
-0.085246779 -1.0120728 0.47717357 4284900966
0.1298115 -1.0198522 0.47491494 4289045925
0.15648656 -1.03626 0.47569698 4290756543
-0.10885987 -0.98865539 0.47368309 4284900966
-0.076111071 -0.97168243 0.47434661 4284637794
-0.026770817 -0.95964485 0.47539318 4284703587
0.025431564 -0.95799464 0.47488645 4284835173
0.076558448 -0.97138369 0.47434387 4286743170
0.11112802 -0.99219376 0.47461906 4288453788
-0.06360767 -0.94297045 0.46978268 4284900966
-0.025367728 -0.93923688 0.47438133 4283256141
0.022998771 -0.93986702 0.47460121 4282861383
-0.10410833 -1.2020599 0.50877517 4284182107
-0.066145815 -1.2287178 0.50722069 4282018615
0.10890123 -1.2075084 0.50661367 4291414473
-0.12402824 -1.1751522 0.5075348 4284770147
0.13568808 -1.1704215 0.50855738 4290038708
-0.1400269 -1.1232164 0.50802904 4284704355
0.14810057 -1.1383133 0.50834334 4289967795
0.15520014 -1.1184196 0.5089187 4288916387
-0.14278147 -1.072585 0.50774258 4283914071
0.14767638 -1.0663939 0.50870448 4290033844
0.15938064 -1.0820221 0.50803304 4287467661
-0.12609437 -1.0244142 0.50785637 4283519313
0.1300326 -1.021229 0.50772661 4288322970
0.15645152 -1.0361505 0.50711918 4290888129
-0.10769912 -0.98921907 0.50683749 4284900966
-0.074398078 -0.97186542 0.50850308 4284045913
-0.027855663 -0.96004307 0.50861764 4283650899
0.02669486 -0.95722419 0.50854093 4284374878
0.077865586 -0.97323412 0.50738329 4286414205
0.1099299 -0.99244529 0.50764865 4287269514
-0.058017969 -0.9445951 0.50802326 4284900966
-0.022135787 -0.94104171 0.50723535 4283650899
0.020014158 -0.93913203 0.50798619 4281808695
