# .PCD v0.7 - Point Cloud Data file format
VERSION 0.7
FIELDS x y z rgb
SIZE 4 4 4 4
TYPE F F F U
COUNT 1 1 1 1
WIDTH 1074
HEIGHT 1
VIEWPOINT 0 0 0 1 0 0 0
POINTS 1074
DATA ascii
0.37517712 0.77499163 0.011747829 4288387995
0.42489448 0.7739265 0.011976141 4288387995
0.47514924 0.77485412 0.011877989 4288387995
0.52531606 0.77457738 0.011949411 4288322202
0.57523161 0.77533394 0.01188672 4288322202
0.62515789 0.77502424 0.011811898 4288387995
0.67510396 0.7749939 0.01179433 4288387995
0.72536719 0.77515739 0.011972625 4288387995
0.77543241 0.77481484 0.011659679 4288387995
0.82553208 0.77505785 0.011780292 4288387995
0.87502211 0.77500021 0.012045784 4288387995
0.92538661 0.775078 0.012202677 4288322202
0.97477442 0.77527237 0.012134789 4288322202
1.0251958 0.77492023 0.012256764 4288190616
1.0748198 0.77471244 0.012345742 4288387995
1.1253599 0.77527976 0.012323536 4288387995
1.1735789 0.77477711 0.012297117 4288387995
1.2248101 0.77476144 0.012223592 4288387995
1.2750177 0.77489263 0.011973744 4288387995
1.3255057 0.77476192 0.011620748 4288322202
1.3750647 0.77523667 0.01168036 4288387995
-1.3737303 0.82483131 0.011901341 4288387995
-1.3251418 0.82444018 0.011752466 4288387995
-1.2747607 0.82555395 0.011846616 4288387995
-1.2248012 0.82447952 0.0119701 4288387995
-1.174687 0.82548106 0.011939016 4288387995
-1.1247575 0.82527357 0.011898578 4288387995
-1.0753237 0.8246122 0.011974121 4288387995
-1.0248687 0.82556081 0.012195643 4288387995
-0.97448212 0.82613915 0.011931909 4288387995
-0.92427248 0.8248117 0.011998116 4288322202
-0.87479764 0.82506102 0.01193211 4288387995
-0.82510275 0.82458496 0.011663922 4288387995
-0.77532548 0.82462007 0.011738583 4288322202
-0.72502404 0.8249988 0.012009765 4288322202
-0.67495227 0.82510984 0.011914095 4288387995
-0.62495834 0.82473922 0.011951083 4288322202
-0.57517982 0.82537442 0.011797232 4288387995
-0.52516198 0.82465851 0.012007963 4288387995
-0.47502205 0.82491744 0.011824702 4288387995
-0.42485374 0.82523698 0.011500694 4288387995
-0.37460536 0.82488441 0.011731964 4288387995
-0.32515249 0.82513255 0.011774642 4288322202
-0.27472371 0.82527304 0.012168493 4288387995
-0.22512259 0.82518125 0.012045767 4288387995
-0.17501196 0.82519358 0.011746159 4288387995
-0.1250791 0.82515442 0.01169936 4288387995
-0.074818604 0.82507569 0.011895099 4288387995
-0.024688669 0.8246969 0.011685044 4288387995
0.024976442 0.82486922 0.011902529 4288322202
0.074705571 0.8249262 0.011607848 4288322202
0.12489926 0.82506096 0.011690465 4288322202
0.17511849 0.82461256 0.011581792 4288387995
0.22519219 0.82535249 0.011697715 4288387995
0.27513555 0.82437027 0.011733685 4288387995
0.3251107 0.8254413 0.011668668 4288387995
0.37496826 0.82505631 0.011888185 4288322202
0.42526856 0.82474631 0.011901882 4288387995
0.47522309 0.82514465 0.011725469 4288387995
0.52501029 0.82509619 0.01188574 4288387995
0.5753879 0.8254959 0.011940777 4288387995
0.62516147 0.82452738 0.011703893 4288387995
0.67528415 0.82504255 0.011774739 4288387995
0.7251963 0.82491392 0.011858952 4288322202
0.77532858 0.82497102 0.011784605 4288322203
0.82538092 0.82515877 0.011702883 4288387995
0.87509865 0.82517684 0.011799127 4288387995
0.92513299 0.82505286 0.012044084 4288387995
0.97473603 0.8248632 0.012132808 4288322202
1.0247716 0.82500887 0.012310898 4288190616
1.0750778 0.8249346 0.012499373 4288322202
1.125381 0.82485145 0.012285015 4288387995
1.174721 0.82506925 0.012271323 4288322202
1.225644 0.82484508 0.012266599 4288387995
1.2754306 0.82469261 0.011926112 4288322202
1.325317 0.82493609 0.011623072 4288256409
1.3749489 0.82505345 0.011748381 4288387995
-1.3750277 0.87479818 0.011904205 4288387995
-1.3253112 0.87415773 0.012016039 4288453788
-1.2752945 0.87540126 0.011518034 4288387995
-1.2256354 0.87422198 0.011867542 4288387995
-1.1748263 0.87547094 0.011883777 4288387995
-1.1250989 0.87490898 0.011821274 4288387995
-1.0752646 0.87461859 0.011827086 4288387995
-1.0249466 0.87525105 0.011950042 4288322202
-0.97542071 0.87538409 0.011965178 4288322202
-0.92545503 0.87511492 0.011983091 4288322202
-0.87532997 0.87507689 0.012061552 4288387995
-0.82456046 0.87529528 0.011947811 4288387995
-0.77506721 0.87467378 0.012018463 4288387995
-0.7249009 0.87551188 0.011853878 4288387995
-0.67521906 0.87479705 0.012104239 4288322202
-0.62500215 0.87493157 0.01191636 4288387995
-0.57493395 0.87557799 0.011882755 4288322202
-0.52509367 0.87461615 0.011666986 4288387995
-0.47545147 0.87472999 0.011645275 4288387995
-0.42527163 0.87566894 0.011884408 4288322202
-0.37526283 0.87483293 0.011440158 4288387995
-0.3250027 0.87525803 0.011637961 4288322202
-0.27488089 0.87548226 0.01209199 4288387995
-0.22485271 0.87483871 0.011786294 4288322202
-0.17490287 0.87520409 0.011801868 4288322202
-0.1244754 0.87496126 0.011736778 4288387995
-0.074863538 0.87568659 0.011523846 4288322202
-0.02364793 0.87663323 0.014146508 4288322202
0.024729192 0.8749752 0.01172001 4288387995
0.075026855 0.87468439 0.01174837 4288322202
0.1251732 0.87501025 0.011811335 4288322202
0.17517398 0.87476927 0.011643755 4288322202
0.22486416 0.87509745 0.011579186 4288387995
0.2753399 0.87544531 0.0117176 4288387995
0.32524833 0.87514138 0.011734636 4288322202
0.37502286 0.87526464 0.011753388 4288322202
0.42545158 0.87502199 0.011845882 4288387995
0.47481987 0.87501425 0.011662122 4288387995
0.52507401 0.87493396 0.011683644 4288387995
0.57476318 0.87526649 0.011680497 4288387995
0.62473941 0.87456369 0.011717826 4288387995
0.67501611 0.874569 0.011819567 4288387995
0.72488314 0.87545913 0.011770085 4288387994
0.77497625 0.87531775 0.011609 4288387739
0.82505119 0.87437904 0.011607178 4288387995
0.87482053 0.87545264 0.011693808 4288387995
0.92443323 0.87441009 0.011827252 4288387995
0.97458667 0.87497717 0.012235625 4288256409
1.0255355 0.87606537 0.015346746 4288256409
1.0726861 0.87475139 0.015553926 4288322202
1.1250165 0.87491012 0.012513084 4288322202
1.1754525 0.87447739 0.012236997 4288387995
1.2245426 0.87488955 0.012410808 4288322202
1.2750702 0.87482595 0.012098917 4288387995
1.3250906 0.87519568 0.011956397 4288387995
1.3746562 0.87504178 0.011533854 4288322202
-1.3744371 0.9250747 0.01189493 4288387995
-1.3239475 0.92575216 0.011630231 4288387995
-1.2751445 0.92534918 0.011743763 4288322202
-1.2248784 0.92445284 0.011843443 4288387995
-1.1705149 0.92999059 0.018706381 4288256409
-1.1236196 0.93243939 0.023872934 4287730065
-1.0748683 0.93264902 0.023288574 4288059030
-1.0271997 0.92847002 0.015821731 4288387995
-0.97489351 0.92510277 0.011915657 4288387995
-0.92492872 0.92486727 0.011813439 4288322202
-0.87506431 0.92491615 0.011838823 4288322202
-0.82506692 0.9250778 0.011782097 4288387995
-0.77493507 0.9246192 0.011863993 4288387995
-0.72494394 0.92514831 0.011814953 4288387995
-0.67510307 0.92519951 0.011753062 4288387995
-0.6252318 0.92495149 0.011929397 4288387995
-0.57526487 0.92546964 0.012038679 4288387995
-0.52478081 0.92490691 0.011727066 4288322202
-0.47477064 0.92494339 0.011818374 4288322202
-0.42479837 0.92533183 0.011820066 4288387995
-0.37516311 0.92480224 0.011841263 4288387995
-0.32534659 0.92492998 0.011643696 4288387995
-0.27503654 0.92466331 0.011850021 4288322202
-0.22512138 0.9249649 0.01189233 4288387995
-0.17474928 0.9246223 0.01198066 4288387995
-0.1234005 0.92722601 0.014346891 4288387995
-0.07398396 0.92823005 0.023168167 4288256409
-0.026076945 0.93182367 0.02401053 4286874756
0.022275195 0.93424225 0.022316422 4287730065
0.073315039 0.92668122 0.013291824 4288453788
0.12489976 0.92480665 0.011802083 4288322202
0.17510317 0.92500585 0.011804747 4288322202
0.22494978 0.92507803 0.011797751 4288322202
0.27460644 0.92516851 0.011771734 4288387995
0.32508874 0.92481911 0.011585235 4288322202
0.37463611 0.92526579 0.011764654 4288387995
0.42482823 0.92502165 0.011678081 4288387995
0.47519007 0.92562705 0.011658452 4288387995
0.52512443 0.92465943 0.011659168 4288387995
0.57493001 0.92542547 0.011689045 4288387995
0.62478465 0.92439616 0.011637839 4288387995
0.67491859 0.92494339 0.011718205 4288322202
0.72491813 0.92498243 0.011740318 4288387995
0.77515101 0.92510039 0.011728593 4288322202
0.8246479 0.92480284 0.011964812 4288322202
0.87492239 0.9250868 0.011904218 4288322202
0.92493737 0.92446953 0.011957133 4288256409
0.97545981 0.92490697 0.012193509 4288256409
1.0248929 0.92768186 0.016090374 4288256409
1.0762018 0.93030113 0.022133568 4287401100
1.1243783 0.93357754 0.024102001 4287993237
1.1745162 0.92930031 0.021904338 4288848546
1.2247192 0.92981988 0.017791523 4288059798
1.2749076 0.92520732 0.011619585 4288387995
1.3248889 0.92502332 0.011834618 4288387995
1.3750683 0.92506409 0.011925315 4288322202
-1.3745593 0.97420144 0.011534888 4288387995
-1.3257245 0.97449034 0.011595386 4288387995
-1.2740499 0.97522837 0.011352105 4288322202
-1.2185851 0.98046345 0.021776464 4286743170
-1.1773481 0.96717066 0.029570632 4285756275
-1.1273651 0.95492274 0.031669222 4285493103
-1.0701388 0.95909023 0.03084797 4287598479
-1.0247427 0.97142696 0.030238179 4288914339
-0.98144531 0.98128885 0.024422275 4289374890
-0.92517507 0.97497725 0.01201115 4288322202
-0.87608099 0.97480261 0.011837002 4288322202
-0.82599586 0.97484916 0.011783871 4288387995
-0.77614599 0.97447133 0.011844568 4288387995
-0.72565073 0.9752419 0.01177569 4288387995
-0.67575246 0.97527975 0.011945418 4288387995
-0.62605596 0.97479129 0.011892743 4288387995
-0.57523829 0.97524261 0.011941967 4288387995
-0.52511954 0.97501242 0.011810737 4288322202
-0.47485951 0.97491646 0.011834549 4288322202
-0.42503071 0.97508186 0.011876684 4288387995
-0.37486303 0.97462976 0.01178779 4288387995
-0.32476452 0.97509193 0.011712129 4288387995
-0.27509987 0.97508329 0.011743681 4288322202
-0.22486943 0.97506201 0.011861783 4288387995
-0.17492767 0.97447073 0.011636653 4288387995
-0.11932114 0.97786599 0.022356801 4287137928
-0.078931138 0.96935707 0.030613238 4285624689
-0.028538246 0.95590502 0.03189981 4285295724
0.023956377 0.95728678 0.034244467 4286808963
0.079150774 0.96969157 0.029928921 4289440683
0.11908831 0.98123729 0.022088585 4288716960
0.17459974 0.97500879 0.011891434 4288322202
0.22492974 0.97512567 0.011658672 4288322202
0.27479497 0.97501326 0.011833198 4288322202
0.32510537 0.97534806 0.011846432 4288322202
0.37527829 0.97523761 0.011867045 4288322202
0.42519292 0.97507751 0.011721752 4288322202
0.47496518 0.97516042 0.011667812 4288322202
0.52478725 0.97485578 0.011876718 4288322202
0.57450938 0.97521865 0.011805265 4288322202
0.62461627 0.97470343 0.012025638 4288256409
0.67489564 0.97559875 0.012158521 4288256409
0.72516739 0.97495061 0.012068077 4288256409
0.77482194 0.97589231 0.011777554 4288322202
0.82471079 0.974868 0.011863205 4288322202
0.87486053 0.97566634 0.011892737 4288322202
0.92450315 0.97423637 0.011897431 4288322202
0.97873271 0.97955173 0.018937796 4287072135
1.0256243 0.97551394 0.029479448 4285295724
1.0716631 0.96634722 0.03010444 4285098345
1.1289374 0.95803332 0.030509301 4287269514
1.1787118 0.97095406 0.029868646 4289243304
1.2189867 0.98045349 0.024483589 4289243304
1.2719332 0.97341228 0.017017862 4287731601
1.3250022 0.97501463 0.01171978 4288322202
1.3748244 0.97481298 0.011613131 4288387995
-1.3757826 1.0250793 0.011471312 4288387995
-1.3256758 1.0246291 0.011456216 4288322202
-1.2754681 1.025245 0.011193915 4288322202
-1.2302495 1.0192856 0.028884612 4285822068
-1.0070621 1.0082878 0.031388059 4287993237
-0.97288215 1.0229834 0.030003538 4290493371
-0.92899501 1.0273693 0.015894912 4288848546
-0.87455064 1.0246725 0.012297851 4288387995
-0.82442856 1.025087 0.012098231 4288322202
-0.77404398 1.0252817 0.011910086 4288387995
-0.72463262 1.0250248 0.011845891 4288387738
-0.67476141 1.0248684 0.012045299 4288387995
-0.62430787 1.024814 0.012124446 4288387995
-0.57471406 1.0254223 0.011963947 4288387995
-0.52575803 1.024017 0.011876303 4288322459
-0.4749755 1.0249513 0.011798463 4288387995
-0.42501777 1.0250497 0.011744356 4288387995
-0.37552673 1.024817 0.011762763 4288322202
-0.32509139 1.0250397 0.011639131 4288322202
-0.27487984 1.0254248 0.011853104 4288322202
-0.22509563 1.0252234 0.011722846 4288322202
-0.17281158 1.0276774 0.014344024 4287861651
-0.12625951 1.0249056 0.029344216 4285295724
-0.079988658 1.0159503 0.031266931 4284835173
-0.024888242 1.0067028 0.03506906 4284900966
0.12788256 1.0243562 0.029689917 4290493371
0.173136 1.0267113 0.020043707 4288453788
0.2220175 1.0270773 0.014240893 4288256409
0.27533099 1.0249374 0.011624942 4288322202
0.32485634 1.0250849 0.011755764 4288322202
0.37473783 1.0248986 0.011859072 4288322202
0.42478061 1.0249405 0.01183248 4288322202
0.47489879 1.0250496 0.011899915 4288322202
0.52509606 1.0252723 0.011945461 4288387995
0.57533783 1.0251056 0.012097932 4288387995
0.62564147 1.0255302 0.012241317 4288387995
0.67498732 1.024935 0.012193437 4288387995
0.72524595 1.0248922 0.012004633 4288387995
0.7756263 1.0252072 0.011969794 4288387995
0.82568163 1.0257121 0.011939282 4288387995
0.87541962 1.0247296 0.012087425 4288322202
0.92885411 1.0279396 0.016111083 4287664272
0.97249758 1.0244712 0.029878771 4285493103
1.0201273 1.0183626 0.031103745 4284835173
1.0708096 1.0259959 0.030850712 4284900966
1.1985016 1.0040237 0.034359142 4289835441
1.22934 1.0215045 0.029215161 4290559164
1.2727249 1.0259472 0.018348349 4288256921
1.3250979 1.0248992 0.011719814 4288322202
1.3752195 1.0248433 0.011778158 4288387995
-1.374329 1.0745279 0.011246478 4288387995
-1.324247 1.0749514 0.011369755 4288322202
-1.2719873 1.0772461 0.01387853 4287993237
-1.2467797 1.0759376 0.030751999 4285164394
-0.96160352 1.0715461 0.03016259 4291348680
-0.93276244 1.0747848 0.020837368 4289638062
-0.87453002 1.0748998 0.012284449 4288322202
-0.82458162 1.0749286 0.01236464 4288322202
-0.77484393 1.0748703 0.012110425 4288322202
-0.72493875 1.0745554 0.011948943 4288387995
-0.67472684 1.0753829 0.011900201 4288387995
-0.62470782 1.0743265 0.012139487 4288387995
-0.57462329 1.0750235 0.012317547 4288387995
-0.52535129 1.0748826 0.012034619 4288387994
-0.47529534 1.0750403 0.011832708 4288322459
-0.42496955 1.0750104 0.011591568 4288387995
-0.37470317 1.0747294 0.011737287 4288387995
-0.32521039 1.0745528 0.011782612 4288322202
-0.2746197 1.0751202 0.012045378 4288322202
-0.22500977 1.0753084 0.012013422 4288322202
-0.16830024 1.0774788 0.022066157 4286479998
-0.14253834 1.0739321 0.030802339 4284900966
0.13893254 1.0718794 0.030454008 4291019715
0.16843529 1.0767715 0.022649648 4289638062
0.22337055 1.0756241 0.014025799 4288322202
0.27476797 1.0747309 0.011756153 4288322202
0.32494295 1.074602 0.011464569 4288256409
0.3750771 1.0751849 0.011629281 4288322202
0.42493474 1.0749328 0.011585412 4288387995
0.47491845 1.075054 0.011887226 4288387995
0.5249896 1.0752541 0.011957382 4288387995
0.57439858 1.07459 0.01198792 4288387995
0.62419486 1.0750966 0.012042901 4288387995
0.67485118 1.0748385 0.012100725 4288387995
0.72519654 1.0748371 0.01197135 4288387995
0.77500015 1.0751793 0.011954856 4288322202
0.82456636 1.0747592 0.011818674 4288387995
0.87453926 1.0750488 0.012045646 4288322202
0.93245524 1.0759864 0.024137391 4287006342
0.96316445 1.0688643 0.030547671 4284900966
1.0124408 1.0653772 0.032867052 4284835173
1.2443157 1.0713893 0.029508777 4290888129
1.270438 1.0764244 0.020203155 4289045925
1.325014 1.0749282 0.01182114 4288256409
1.3747811 1.0750754 0.011736631 4288190616
-1.3750763 1.1247172 0.011531324 4288322202
-1.3257568 1.1240317 0.011346276 4288387995
-1.2712868 1.1228305 0.015074118 4287795858
-1.2466303 1.1242177 0.031167295 4285822068
-0.96351969 1.1269689 0.029947504 4290427578
-0.9331128 1.1243358 0.021437872 4289374890
-0.8750276 1.1250713 0.012259312 4288322202
-0.82486075 1.1250052 0.01235991 4288387995
-0.77462161 1.1249979 0.012294105 4288322459
-0.7249465 1.1248845 0.011918468 4288387994
-0.67511284 1.1248512 0.011948548 4288387995
-0.62484694 1.1250044 0.012309838 4288322202
-0.57495278 1.124971 0.012075041 4288387995
-0.52495545 1.1251404 0.012085083 4288387995
-0.47500253 1.1249442 0.011932756 4288322202
-0.42515954 1.1251526 0.011712261 4288322202
-0.37452817 1.1248978 0.011727171 4288387995
-0.32503691 1.1252751 0.012068246 4288387995
-0.27498513 1.1251271 0.012065201 4288387995
-0.22462247 1.1252348 0.012164405 4288059030
-0.16939881 1.1226251 0.022834275 4287072135
-0.14560775 1.1236466 0.031185901 4285032552
0.14017589 1.1243013 0.030298177 4290888129
0.16728459 1.1232222 0.022076903 4288914339
0.22033846 1.1248544 0.020331539 4288322202
0.27500749 1.1249603 0.011534468 4288387995
0.32499707 1.1249509 0.011540427 4288387995
0.37520126 1.1252903 0.011600287 4288256409
0.42495343 1.1248001 0.011866293 4288322202
0.47519934 1.1249785 0.011863273 4288322202
0.52478838 1.1254168 0.011872286 4288387995
0.57461548 1.1247646 0.011767395 4288387995
0.62479663 1.1243975 0.012073848 4288387995
0.6746459 1.1249441 0.012114828 4288387995
0.72425634 1.1253064 0.011722012 4288387995
0.77417326 1.1252369 0.011835404 4288387995
0.82441258 1.124885 0.011959472 4288387995
0.87427002 1.1251309 0.012035858 4288387739
0.93266219 1.1249166 0.024571482 4286611584
0.95902073 1.1304653 0.02770431 4284966759
1.012001 1.1196604 0.025994102 4284835173
1.245973 1.1247184 0.028799254 4290624957
1.2711304 1.1222112 0.01652362 4288716960
1.3250875 1.1250031 0.011638734 4288387995
1.374854 1.1246647 0.011713672 4288322202
-1.3769027 1.1731796 0.012356709 4288387995
-1.3240057 1.1763784 0.012099036 4288256409
-1.2763555 1.1755645 0.011883655 4288322202
-1.2319801 1.1743726 0.027550951 4285756275
-0.97110039 1.1765233 0.029932499 4289374890
-0.92861164 1.1719668 0.016183041 4288782753
-0.87504297 1.1745421 0.011822448 4288322202
-0.82529986 1.1749272 0.011693083 4288387995
-0.77464652 1.175118 0.011829075 4288322202
-0.72473723 1.1750714 0.011701626 4288387994
-0.67467654 1.1752468 0.011677201 4288387995
-0.62449431 1.1742589 0.011640253 4288322202
-0.57482231 1.1751133 0.011859207 4288322202
-0.52459943 1.1743805 0.012063681 4288322202
-0.47500226 1.1752136 0.012148988 4288387995
-0.42532554 1.1747543 0.012114394 4288322203
-0.37510139 1.1752583 0.011839601 4288322202
-0.32461634 1.1745621 0.011913667 4288387995
-0.27489752 1.1749321 0.012085396 4288190616
-0.22499742 1.1754853 0.011836844 4288256409
-0.1718365 1.1756188 0.020385072 4288322202
-0.13189679 1.1765189 0.027803073 4285493103
0.13020818 1.1763333 0.028338192 4289177511
0.17485689 1.1749053 0.011799471 4288322202
0.22454968 1.1727767 0.019049255 4288387995
0.2748448 1.1750772 0.011460009 4288387995
0.32491046 1.1747937 0.011501346 4288387995
0.37482646 1.1752226 0.011604586 4288322202
0.42469746 1.1754359 0.011581307 4288387995
0.47449788 1.1748085 0.011742267 4288322202
0.52481675 1.1754557 0.011745078 4288322202
0.57521546 1.1752948 0.011687283 4288322202
0.62526613 1.1741195 0.011717231 4288322202
0.67548543 1.1750981 0.011964782 4288256409
0.72532684 1.1756408 0.011828672 4288387995
0.77499306 1.1748295 0.011664057 4288387739
0.82537866 1.1749885 0.011710904 4288387995
0.87535197 1.175359 0.011968924 4288322202
0.93026787 1.1741889 0.022232004 4287072135
0.96956116 1.1776584 0.028734548 4285427310
1.2301037 1.1768285 0.026769971 4289374890
1.2749486 1.1747272 0.011587357 4288387995
1.3249148 1.1747577 0.011665856 4288387995
1.3750936 1.1748735 0.011601649 4288387995
-1.3750376 1.2253646 0.012363493 4288387995
-1.3252465 1.2251365 0.011655578 4288322202
-1.2746263 1.2250965 0.011936255 4288387995
-1.2212589 1.2218972 0.016754927 4287466893
-1.1733116 1.2324333 0.026625512 4286348412
-1.1279781 1.2423338 0.030145098 4285098345
-1.0721269 1.238054 0.029527094 4285427310
-1.0229857 1.2284029 0.029343292 4287006342
-0.9815976 1.2200084 0.023690915 4288190616
-0.92494971 1.2248278 0.012092943 4288387995
-0.87491006 1.2249836 0.01224376 4288322202
-0.82468766 1.224861 0.011832041 4288387995
-0.77521837 1.2249485 0.011647476 4288387995
-0.7250905 1.2251533 0.011779673 4288322202
-0.67488497 1.2253108 0.011789815 4288322202
-0.62516069 1.224209 0.011707804 4288322202
-0.57535601 1.2244879 0.012019874 4288387995
-0.52504838 1.2253853 0.011990283 4288387739
-0.47468388 1.2245382 0.012314105 4288387739
-0.42513871 1.2252529 0.012672031 4288387739
-0.37494636 1.2252071 0.012231703 4288322203
-0.32476562 1.2253386 0.012159735 4288256409
-0.27472937 1.225175 0.011997247 4288322202
-0.22508259 1.225304 0.012125053 4288124823
-0.17449759 1.2242169 0.014579724 4288322202
-0.12179536 1.2209408 0.016572798 4287532686
-0.073108584 1.2311229 0.025752785 4286282619
-0.026429066 1.2421114 0.030196657 4285164138
0.024872713 1.2421447 0.030950427 4285164138
0.07805986 1.2309641 0.028935999 4287203721
0.11955887 1.2220137 0.020740494 4288387995
0.17514984 1.2251627 0.011450592 4288322202
0.22308223 1.2238467 0.018462203 4288387995
0.27513745 1.2249136 0.011878146 4288387995
0.32502994 1.2252907 0.011861359 4288387995
0.37595558 1.2250016 0.011770231 4288387995
0.42567897 1.2247703 0.011571461 4288322202
0.47523907 1.2249038 0.011612266 4288322202
0.52509284 1.2254667 0.011819277 4288387995
0.57574034 1.224812 0.012042494 4288322202
0.62500936 1.2246292 0.012193749 4288190616
0.6750648 1.2255425 0.012042372 4288322202
0.72597766 1.2249424 0.011881628 4288322202
0.77567756 1.2248055 0.011750512 4288387995
0.82567793 1.2251179 0.011910677 4288322202
0.87552714 1.2249876 0.011774499 4288322202
0.92724556 1.2251899 0.016719678 4287730065
0.97962117 1.2226572 0.024596749 4287269514
1.0222023 1.2279685 0.027219271 4285493103
1.0712339 1.2446619 0.029417021 4284966759
1.1260448 1.2470322 0.0294243 4285229931
1.1770462 1.2301708 0.026318599 4287466893
1.2182187 1.2192734 0.019840725 4288453788
1.2748561 1.2252798 0.011702154 4288387995
1.3250437 1.2249347 0.011637427 4288387995
1.3750986 1.2251953 0.011560262 4288387995
-1.3754327 1.275251 0.012030113 4288322202
-1.3250706 1.275023 0.011515616 4288387995
-1.2748996 1.2750537 0.012055213 4288387995
-1.2245207 1.2749292 0.01211906 4288387995
-1.1743747 1.2752721 0.012012341 4288387995
-1.1240672 1.2703394 0.021580648 4287532686
-1.0746347 1.2691724 0.023734888 4287401100
-1.0282143 1.2698841 0.020745425 4287532686
-0.97504097 1.2749388 0.011907394 4288387995
-0.92526853 1.2752103 0.011842054 4288322202
-0.87541169 1.274493 0.012221908 4288322202
-0.82541704 1.2752608 0.012272421 4288322202
-0.77529258 1.2746799 0.011793791 4288322202
-0.72518831 1.2751229 0.011897669 4288387995
-0.67503512 1.2750837 0.011754665 4288387995
-0.6251505 1.2749314 0.011716742 4288387739
-0.5752821 1.2751493 0.011988237 4288322203
-0.52554113 1.2749321 0.012028013 4288387995
-0.47547838 1.2750667 0.012004447 4288387995
-0.4249332 1.2749425 0.01230064 4288387995
-0.37501046 1.2751687 0.012362868 4288256152
-0.32497093 1.2752134 0.012038426 4288256409
-0.27474004 1.2756114 0.012199069 4288256409
-0.22448948 1.2749753 0.01192835 4288387995
-0.17497443 1.2750673 0.012175097 4288387995
-0.12449966 1.2754276 0.011917928 4288256409
-0.074999221 1.2747922 0.011768019 4288322202
-0.024183577 1.2704149 0.018450368 4288322202
0.024551684 1.2683269 0.019440752 4286940549
0.075247273 1.2751716 0.011758119 4288387995
0.12483017 1.2749332 0.011477233 4288387995
0.17732021 1.2744924 0.013783322 4288387995
0.22481857 1.2750239 0.01152533 4288387995
0.27522609 1.2749156 0.011698005 4288387995
0.32488957 1.2750789 0.011869286 4288387995
0.37466863 1.2752562 0.012135948 4288387995
0.42468572 1.2744174 0.011992927 4288387995
0.47522092 1.2746844 0.012146327 4288387995
0.52540565 1.2747463 0.012091416 4288387995
0.57508445 1.275176 0.011866249 4288387995
0.62456441 1.2753502 0.012005582 4288322202
0.67496485 1.2749858 0.011968995 4288322202
0.72497231 1.2749454 0.011959322 4288322202
0.7747997 1.275194 0.01176113 4288322202
0.82483572 1.2747791 0.011643474 4288322202
0.87491304 1.2747035 0.011486067 4288322202
0.92625171 1.2734067 0.013426431 4288059030
0.97334546 1.275396 0.013346553 4288190616
1.0235262 1.2733023 0.016284132 4288190616
1.077863 1.2704376 0.015406474 4287598479
1.1233426 1.2679763 0.017524123 4287664272
1.1751081 1.2747471 0.011298914 4288322202
1.2252446 1.2747453 0.011520576 4288387995
1.2753488 1.275008 0.011600882 4288387995
1.3250042 1.2752302 0.011694589 4288387995
1.3750044 1.2752376 0.011686223 4288387995
-1.3751776 1.3248423 0.011825582 4288387995
-1.3251984 1.3253261 0.011762122 4288387995
-1.2750859 1.3248758 0.011939878 4288387995
-1.224787 1.3252258 0.012169433 4288387995
-1.1749679 1.3250221 0.012135 4288387995
-1.1247727 1.325489 0.012430722 4288322202
-1.0752066 1.324762 0.012195214 4288322202
-1.0247386 1.3248538 0.011946141 4288387995
-0.97500944 1.324808 0.011954209 4288322202
-0.92460638 1.324684 0.011779474 4288322202
-0.87533247 1.325399 0.012121825 4288322202
-0.82504898 1.325105 0.012090384 4288322203
-0.77502531 1.3249477 0.012251982 4288322202
-0.7246263 1.3244889 0.01216334 4288322458
-0.67532974 1.3253666 0.011849002 4288322459
-0.6247474 1.3244091 0.011724659 4288387995
-0.57495129 1.325224 0.011949408 4288322459
-0.52466393 1.3250422 0.012076771 4288322459
-0.47467718 1.3252106 0.011927067 4288387995
-0.42503524 1.3250144 0.012349269 4288322202
-0.37432089 1.3250772 0.012209651 4288322458
-0.32456931 1.3248616 0.012109429 4288387995
-0.27468845 1.3249 0.012085216 4288322202
-0.22445665 1.3242084 0.012144442 4288387995
-0.17541628 1.3249623 0.011890131 4288322202
-0.1253943 1.3242974 0.011836587 4288322202
-0.076145202 1.3251826 0.011605394 4288322202
-0.024784854 1.3256608 0.011846956 4288387995
0.025079669 1.3250486 0.011582269 4288387995
0.074664488 1.3251102 0.01161273 4288387995
0.12515602 1.3248127 0.011684703 4288387995
0.17522405 1.325187 0.011549208 4288387995
0.22544214 1.324965 0.011344915 4288387995
0.27475393 1.3247292 0.0114181 4288387995
0.3247675 1.3250971 0.01144258 4288387995
0.37395966 1.3242759 0.011566122 4288387995
0.42503539 1.3248258 0.012320828 4288387995
0.47546846 1.3255252 0.012382438 4288387995
0.52438849 1.3249185 0.011990764 4288387995
0.57472253 1.3246647 0.01157463 4288387995
0.62429148 1.3251066 0.011544309 4288387995
0.67426932 1.3251386 0.011692171 4288387995
0.72437078 1.3254009 0.011604297 4288387995
0.77470291 1.3252026 0.011625544 4288322202
0.82448339 1.3247415 0.011328207 4288256409
0.87469298 1.3249227 0.01133329 4288322202
0.9251731 1.3251801 0.01132588 4288322202
0.97625887 1.3231902 0.013370719 4288190616
1.025032 1.3249418 0.011406895 4288322202
1.0749694 1.3248684 0.011425418 4288322202
1.1247393 1.3245654 0.011497326 4288387995
1.1748768 1.3249524 0.011362042 4288387995
1.2245661 1.3250947 0.011686132 4288387995
1.2746093 1.3251076 0.011627724 4288387995
1.3250281 1.3250499 0.011667438 4288387995
1.3748606 1.3244853 0.011937593 4288387995
-1.3750708 1.3750772 0.011839793 4288322202
-1.3248917 1.3751075 0.011934184 4288387995
-1.274501 1.3748512 0.012041653 4288387995
-1.2251941 1.3755569 0.012099727 4288387995
-1.1749811 1.3745543 0.012276323 4288322458
-1.1251304 1.3753666 0.012446791 4288387994
-1.0744685 1.3754349 0.012556191 4288322202
-1.0246645 1.3753494 0.011865697 4288387994
-0.97527093 1.3747928 0.011888363 4288322202
-0.92501289 1.3747996 0.011998207 4288322202
-0.87547946 1.374878 0.011979187 4288322202
-0.82541376 1.3746257 0.011922011 4288322202
-0.77482474 1.3752487 0.011871184 4288387739
-0.72548914 1.374923 0.012349617 4288322458
-0.67516768 1.3750511 0.012226393 4288322458
-0.62503409 1.3746922 0.011949139 4288387739
-0.57523894 1.3748811 0.011885192 4288387995
-0.52549863 1.3754191 0.012015354 4288387739
-0.47545388 1.3750385 0.011981786 4288256409
-0.42492753 1.3753345 0.011942101 4288322202
-0.37550491 1.3749014 0.011935874 4288322202
-0.32499167 1.3751211 0.012132087 4288190616
-0.27523041 1.3752247 0.011950394 4288322202
-0.22520711 1.3753084 0.012030011 4288322202
-0.1744983 1.3746797 0.011786435 4288387995
-0.12509103 1.3752066 0.011846322 4288387995
-0.075093418 1.3750936 0.01192101 4288256409
-0.025224268 1.3752904 0.011847057 4288387995
0.024908464 1.3752022 0.011625048 4288387995
0.074399643 1.3748751 0.011522778 4288387995
0.1247456 1.3750718 0.011508055 4288322202
0.17494908 1.3753064 0.011632643 4288322202
0.22504371 1.3750849 0.011499485 4288322202
0.27469853 1.3747702 0.011327659 4288387995
0.32469043 1.3746448 0.011355333 4288387995
0.37505338 1.3752196 0.011468776 4288387995
0.42469111 1.3748845 0.011442205 4288387995
0.47472146 1.3749527 0.011711955 4288387995
0.52491707 1.3751401 0.011941331 4288387995
0.57478178 1.3752942 0.011849978 4288387995
0.62514871 1.375123 0.011633097 4288387995
0.67463136 1.3748558 0.011594138 4288387995
0.72480261 1.3748648 0.011562377 4288322202
0.77469361 1.3744735 0.011497695 4288322202
0.8250044 1.374653 0.011424754 4288387995
0.87479776 1.3750247 0.011348809 4288322202
0.9253096 1.375244 0.011443382 4288322202
0.97564405 1.374701 0.011604241 4288256409
1.0255662 1.3744708 0.011379979 4288387995
1.0749632 1.3756191 0.011526511 4288190616
1.1252403 1.3746045 0.011502121 4288387995
1.1750998 1.3752574 0.011619373 4288387995
1.2247789 1.3751065 0.011626474 4288387995
1.2750614 1.3752724 0.011643947 4288387995
1.3247709 1.3750632 0.011741132 4288322202
1.3752018 1.375489 0.011723011 4288387995
-1.1148642 -1.2510321 0.074888334 4284440415
-1.0821497 -1.2564876 0.073365293 4284308829
-1.0436643 -1.2627695 0.071811154 4279111182
-0.016023245 -1.2517048 0.072551578 4285822068
0.019852124 -1.255644 0.073341645 4287532942
0.057697345 -1.252647 0.075396791 4286677377
0.9783932 -1.2604328 0.082531527 4280032284
1.0241908 -1.260974 0.075207882 4281808695
1.0753144 -1.2605726 0.074198 4284703587
1.1214755 -1.2689402 0.074434645 4288124823
1.1753993 -1.2745084 0.07402236 4286681729
1.2150711 -1.2592753 0.072743155 4286091128
-1.2053853 -1.2068987 0.075443231 4284900966
-1.1731799 -1.2275569 0.07329575 4284900966
-1.128244 -1.2447871 0.074068099 4285229931
-1.0716205 -1.2443337 0.075265944 4287137928
-1.0249655 -1.2261243 0.073994353 4289045925
-0.97665238 -1.2178761 0.074736021 4283124555
-0.94902945 -1.2025344 0.074857473 4280756007
-0.10413145 -1.2074864 0.073727772 4284900966
-0.073162928 -1.2228986 0.074135788 4284835429
-0.026155923 -1.2377236 0.073962592 4285032552
0.025270456 -1.2380329 0.073127292 4286348412
0.078356385 -1.2304647 0.07483945 4289111718
0.10701523 -1.2073567 0.075013332 4290427578
0.94542557 -1.2139484 0.075807907 4282269246
0.98012197 -1.2197669 0.076110043 4282071867
1.0265299 -1.2249663 0.073873341 4284703587
1.0715222 -1.2409241 0.073850811 4285098345
1.1245579 -1.2433636 0.075051866 4286940549
1.1775249 -1.2317554 0.075587511 4288980132
1.2077967 -1.2092379 0.077147581 4290295992
-1.2298803 -1.1702995 0.076684363 4284835173
-0.97182697 -1.1752661 0.073870003 4290296248
-0.94122189 -1.1708791 0.075264528 4288585374
-0.12360305 -1.1711438 0.074023038 4284835173
-0.092642128 -1.1811323 0.073206112 4284900966
0.13045961 -1.1746166 0.074600823 4291019971
0.93880093 -1.169798 0.074972801 4284835173
0.97202659 -1.1767832 0.075238295 4284178011
1.0055887 -1.1872739 0.074408688 4284900966
1.2296896 -1.1749336 0.074320823 4291085508
-1.2501223 -1.1040041 0.076833926 4284900966
-1.2452382 -1.1243038 0.075046226 4284835173
-0.95952141 -1.1267569 0.075279392 4291282887
-0.9391951 -1.1229478 0.074658141 4290624957
-0.15591541 -1.1229513 0.07314907 4284900966
-0.13839699 -1.1265938 0.074265219 4284835173
0.14717114 -1.1248341 0.074788384 4291348680
0.15543525 -1.125971 0.074946031 4287927444
0.94137776 -1.1258829 0.07474605 4284835173
0.9629333 -1.125719 0.074963301 4284769636
1.2437214 -1.1296196 0.075648531 4291348680
1.2511042 -1.1142483 0.072804265 4290690750
-1.2564365 -1.0880995 0.074631318 4281636659
-1.2439251 -1.070114 0.074169897 4284770148
-0.95634866 -1.0707965 0.074629165 4290756543
-0.94068885 -1.0807542 0.074836418 4291019715
-0.15989289 -1.079275 0.073160425 4285887861
-0.14274332 -1.0741726 0.074339524 4284835173
0.14604977 -1.0718454 0.074632548 4290822336
0.16006862 -1.0792303 0.075623341 4287532686
0.94340229 -1.0740316 0.075021751 4283262286
0.95941132 -1.0725806 0.075152129 4284704099
1.2424318 -1.0707787 0.075103931 4290822336
1.2552881 -1.0812951 0.0727005 4288256409
-1.2546841 -1.0486783 0.073136255 4278372353
-1.2276106 -1.0209646 0.074595951 4284247132
-1.0079482 -1.0063179 0.076221354 4288585374
-0.97180307 -1.0231091 0.07445287 4289572269
-0.94494694 -1.0426013 0.074300542 4290559164
-0.15584257 -1.037187 0.072881453 4288387995
-0.12911516 -1.0198052 0.074644141 4285295724
-0.088161476 -1.0057285 0.07449308 4284900966
0.12997897 -1.0203102 0.07548479 4289506476
0.15693165 -1.0376496 0.077037089 4290756543
0.94687194 -1.0428913 0.07599175 4284900966
0.97403622 -1.0245695 0.074644268 4284835173
1.0171995 -1.0114975 0.07290788 4284900966
1.0661861 -1.0039741 0.07669434 4284900966
1.113286 -1.0060011 0.082526073 4284900966
1.1955613 -1.0045724 0.075586423 4289572269
1.2254399 -1.0245624 0.074697085 4289703854
1.2549664 -1.0400208 0.07064274 4290953922
-1.2102838 -0.9927237 0.074982502 4285493103
-1.1759231 -0.97291994 0.075138435 4285230443
-1.1221961 -0.96347094 0.075058952 4284900966
-1.0707936 -0.96841091 0.075137727 4285624689
-1.0245028 -0.9729014 0.074579507 4287006342
-0.98624712 -0.98595649 0.07373555 4288651167
-0.11151252 -0.98734134 0.07473167 4285427310
-0.076019377 -0.97274774 0.074841835 4284769380
-0.028242229 -0.96206802 0.075028263 4284835173
0.02540333 -0.9580012 0.075032659 4285098345
0.076095812 -0.97206885 0.074802779 4287006342
0.11117451 -0.99240106 0.075835332 4288453788
0.98420578 -0.97783935 0.075745255 4283984472
1.0245992 -0.97422212 0.074810199 4284835173
1.0711825 -0.96203411 0.074523613 4284900966
1.1274674 -0.95972252 0.0744339 4285032552
1.1742239 -0.97428918 0.074820146 4286874756
1.2100472 -0.99220848 0.073553465 4288387995
-1.1214142 -0.94846171 0.076905601 4284900966
-1.0764529 -0.94591719 0.07332781 4283453520
-1.0265043 -0.93545914 0.072593957 4284572001
-0.98864686 -0.92796385 0.075950533 4282400832
-0.061281599 -0.94260806 0.073866703 4284900966
-0.025986567 -0.93902618 0.074439712 4284966759
0.017902941 -0.93879098 0.074594215 4283979864
0.98815793 -0.94352597 0.074367121 4281234734
1.0261285 -0.93729264 0.075685292 4282536770
1.0756652 -0.93481797 0.073949561 4283256141
1.118353 -0.94004065 0.073164433 4282992969
1.1505423 -0.93479222 0.070160754 4278848010
-1.0648115 -0.85680658 0.075245574 4279176975
-1.0249217 -0.88162816 0.075828925 4279308561
-1.1062311 -0.84566128 0.074437097 4279111182
-1.111734 -0.15159194 0.074536465 4285098345
-1.0770439 -0.15427622 0.075101376 4285624689
-1.0409514 -0.15086713 0.077363774 4287598479
-0.10923094 -0.16695189 0.066651478 4286151033
-0.069467455 -0.16643175 0.072210036 4284045657
-0.021479525 -0.17033108 0.072585046 4285098345
0.021805884 -0.16546178 0.072552629 4286151033
0.058762748 -0.16102022 0.072628602 4287795858
1.0323215 -0.1589791 0.076327547 4283650899
1.0801046 -0.16001591 0.073918991 4283331662
1.1243601 -0.15503858 0.074266218 4285694834
-1.2081283 -0.10540463 0.078158103 4284900966
-1.174577 -0.12193412 0.075692013 4284637794
-1.1286614 -0.13623658 0.075678535 4284900966
-1.0734402 -0.13742729 0.075388454 4286414205
-1.023962 -0.12882736 0.07542406 4288585374
-0.98283929 -0.10634658 0.075845383 4287269514
-0.11033674 -0.10587398 0.073916517 4284769380
-0.076605 -0.12324392 0.07381393 4284966759
-0.026738944 -0.14061788 0.074304931 4285164138
0.029688921 -0.14384994 0.075558499 4287598479
0.076388568 -0.12850332 0.07512255 4289309097
0.11935174 -0.11104904 0.075160295 4290888129
0.98376584 -0.11653323 0.075988799 4283058762
1.0221978 -0.12631281 0.075395174 4284769380
1.0714185 -0.13881777 0.075187065 4285229931
1.1294985 -0.14363223 0.0745399 4287335563
1.1770898 -0.12789127 0.074407071 4289177511
1.2077986 -0.1088814 0.074258544 4290295992
-1.2230287 -0.074207358 0.075529844 4285032552
-1.1851294 -0.092135504 0.072909385 4284900966
-0.97165877 -0.077648036 0.075955123 4290493371
-0.94355083 -0.061438408 0.074159734 4287664272
-0.12727109 -0.076277599 0.073845729 4285032552
0.027651478 -0.087623425 0.076433703 4290427578
0.06839259 -0.079362214 0.077691935 4290756543
0.12892644 -0.076549724 0.07598155 4291019715
0.16379079 -0.067249611 0.075212568 4287730065
0.94282448 -0.06923677 0.078123294 4279176975
0.97661096 -0.077116132 0.076044656 4284506208
1.0044277 -0.08864776 0.075763442 4284900966
1.2265656 -0.079771422 0.073983192 4290953922
-1.2544661 -0.018497048 0.074572735 4284900966
-1.2414161 -0.029219475 0.073461764 4284900966
-1.0298599 -0.035735097 0.074625626 4291414473
-0.9665525 -0.02452144 0.075318947 4291348680
-0.94364876 -0.027166862 0.074293964 4291414473
-0.15595429 -0.017901927 0.073662959 4284900966
-0.14478654 -0.0275678 0.07431177 4284900966
0.14010389 -0.026553648 0.074737243 4291348680
0.16409659 -0.020244444 0.074889518 4288782753
0.94411719 -0.023830861 0.076600157 4283914840
0.96839559 -0.027716102 0.074634776 4284835173
1.2450526 -0.029090615 0.073164091 4291282887
1.2543893 -0.014491794 0.074815661 4290624957
-1.2558464 0.024218686 0.073771305 4284900966
-1.2454191 0.028534524 0.073860355 4284771172
-0.95803231 0.026498349 0.076322384 4290822336
-0.94643921 0.02427629 0.074662782 4289835441
-0.15191156 0.024824614 0.073778003 4284900966
-0.1456062 0.027661888 0.075848997 4284900966
0.14012894 0.027094804 0.0743443 4290888129
0.15821716 0.020325979 0.073984951 4290888129
0.94673091 0.022117291 0.074690826 4284573793
0.96263987 0.026570002 0.075516522 4284900966
1.2450767 0.029272115 0.073502585 4290822336
1.2557151 0.020680984 0.074507341 4289309097
-1.2519661 0.065151885 0.074272685 4286677377
-1.2326502 0.078425206 0.07525827 4285298028
-1.011447 0.086425617 0.077128217 4289901234
-0.97605145 0.073988713 0.075913124 4289177511
-0.93231469 0.075814798 0.075443909 4288651167
-0.15282431 0.088607997 0.075284451 4284900966
-0.12910989 0.078106932 0.074669771 4284966759
-0.097269654 0.099990174 0.056924615 4284900966
0.1247936 0.076315947 0.074361108 4289703855
0.15395159 0.050440386 0.07258679 4290756543
0.9210788 0.093193278 0.075779021 4280756007
0.97623426 0.074896656 0.075212359 4284900966
1.0101273 0.091289021 0.076724775 4284900966
1.2327974 0.075641178 0.073855892 4288848546
1.2578363 0.070295654 0.077561989 4288585374
-1.2117674 0.11805586 0.075795002 4286085752
-1.1793336 0.13096069 0.076772854 4284769380
-1.1270008 0.14262941 0.075694218 4284769380
-1.07565 0.14149742 0.076547757 4285032552
-1.0251142 0.12780692 0.075063907 4286940549
-0.99294877 0.1064434 0.074179716 4288124823
-0.92983055 0.12236988 0.075417884 4289967027
-0.123535 0.1162475 0.074675441 4284769380
-0.075611331 0.12351213 0.074319549 4284835173
-0.026437592 0.13678631 0.074017659 4284900966
0.024134159 0.14062572 0.073992319 4285032552
0.075458109 0.12815605 0.074842364 4286545791
0.10623913 0.10660502 0.075350091 4288322202
0.93156612 0.11626293 0.075343907 4280756007
0.9932912 0.10749725 0.075123668 4285098345
1.0249749 0.12265133 0.074644007 4284900710
1.0724192 0.13586308 0.075599477 4284835173
1.1286068 0.14349176 0.074545816 4285098345
1.1749604 0.12793498 0.075163528 4286282619
1.2202829 0.1111974 0.075869694 4287401100
-1.1786414 0.15811139 0.080479182 4286874756
-1.1291455 0.15598918 0.076439194 4285229931
-1.0811559 0.15244405 0.073153272 4284900966
-0.10746054 0.15552695 0.074662194 4284572001
-0.090295717 0.16825688 0.074065611 4284572001
-0.01028336 0.15113965 0.073430911 4284900966
0.011461351 0.15067568 0.073879555 4284835173
1.0872489 0.15118399 0.074839786 4284967015
1.1220868 0.15191102 0.07333146 4286809219
-0.013200688 0.89631462 0.073570944 4284572001
1.0292008 0.88267839 0.079390705 4278848010
1.0505848 0.87251204 0.079067267 4278848010
-1.1591061 0.94170892 0.075233191 4286874756
-1.1219597 0.93938506 0.075324595 4285690482
-1.074477 0.94327897 0.07697282 4284835173
-1.0356551 0.94567883 0.076916449 4286940549
-0.10964318 0.94733411 0.074975148 4285558896
-0.071346998 0.92997938 0.074936189 4284375134
-0.027426289 0.93818742 0.075114302 4285098345
0.018863356 0.94483078 0.074187897 4287072135
1.0238327 0.93643636 0.071247317 4280492835
1.0777146 0.93776715 0.07640247 4283519313
1.1235487 0.94069576 0.075109109 4287795858
1.1736032 0.93454373 0.075103641 4286488446
1.223927 0.94357967 0.078382231 4278281473
-1.211205 0.98834193 0.075233266 4284704611
-1.1765374 0.9678449 0.075795636 4284379230
-1.1281457 0.9552961 0.076173462 4285427310
-1.0701686 0.95906925 0.07632082 4287466893
-1.0250053 0.97165644 0.075760454 4288716960
-0.98658228 0.98780763 0.073270842 4289111718
-0.11135022 0.98194915 0.076677337 4283591505
-0.078517929 0.96969712 0.075604402 4284573793
-0.02920023 0.95550108 0.075005688 4285229931
0.022892639 0.95872504 0.076482646 4286611584
0.07832367 0.97012877 0.075191908 4289243304
0.11079223 0.98964888 0.075850584 4286743170
0.99243957 0.99312079 0.075283237 4284637794
1.0261508 0.97605693 0.075745925 4284572001
1.0712285 0.9658199 0.075388066 4285098345
1.1277164 0.9572174 0.075371794 4287269514
1.1793643 0.97154051 0.075388975 4289506476
1.2137866 0.98501748 0.07528469 4287669904
1.2591085 0.96634549 0.079230912 4278216192
-1.2285811 1.0203986 0.076477103 4284050265
-1.0069169 1.0083538 0.075607635 4287993237
-0.9731009 1.0234131 0.074510328 4290690750
-0.94902354 1.0397854 0.07371559 4291217094
-0.15327904 1.0495291 0.058645293 4284900966
-0.12531148 1.0253481 0.075511239 4284703587
-0.079072371 1.0166361 0.075686112 4284900966
-0.026971499 1.006655 0.074732542 4284900966
0.12666111 1.0252388 0.074144177 4290822336
0.17073561 1.0298014 0.071836926 4282137660
0.20045841 1.0477916 0.072141364 4280756007
0.94394505 1.0426139 0.077612773 4284900710
0.97328866 1.0250019 0.076161332 4284506208
1.0171406 1.0187653 0.077472478 4284900966
1.0757884 1.0314211 0.07307937 4284900966
1.1986965 1.0042607 0.079143129 4289835441
1.2286606 1.0215267 0.074739814 4290494395
1.2685384 1.0279261 0.074027367 4282737477
-1.2515823 1.0954559 0.075546756 4283199820
-1.2465173 1.0755627 0.076193631 4284573537
-0.96196109 1.0718411 0.07390523 4291414217
-0.94608146 1.0747452 0.07510525 4291414473
-0.16042571 1.0803838 0.073788449 4284374622
-0.14255461 1.0741171 0.075546712 4284769380
0.13865013 1.0722834 0.074918263 4290822336
0.15957499 1.0793966 0.072591975 4289638062
0.20968933 1.0850716 0.071406163 4280756007
0.94166386 1.0758889 0.073772222 4284181339
0.96336573 1.0693941 0.07519643 4284835173
1.012428 1.0654215 0.078563891 4284900966
1.2442626 1.0713398 0.074194141 4290559164
1.2611471 1.0772742 0.074402161 4286545791
-1.2508175 1.1101439 0.076229095 4284900966
-1.246614 1.1239847 0.076380275 4285427310
-0.96370769 1.1280595 0.07383661 4290427578
-0.94707268 1.1223284 0.074976563 4290297016
-0.16384007 1.1197242 0.073683955 4285164138
-0.14579442 1.1228603 0.075456113 4284769380
0.13934577 1.1239655 0.07558009 4290756543
0.15562673 1.1208123 0.075540818 4287795858
0.21250898 1.1242533 0.074325942 4282493761
0.93948108 1.1253375 0.074871935 4284049753
0.95652771 1.128625 0.074806333 4284900966
1.0143893 1.1091964 0.077889308 4284900966
1.2458438 1.1248229 0.073579952 4290559164
1.2537827 1.1100404 0.075943552 4287006342
-1.2295345 1.1730675 0.077349119 4285032552
-0.97229123 1.1758251 0.074652575 4289374890
-0.9424969 1.1601132 0.073283695 4290427578
-0.16630183 1.1754344 0.071585454 4284707427
-0.12993784 1.1760806 0.075948313 4284835174
0.12780167 1.1756717 0.074979499 4288520093
0.22394301 1.1695637 0.074820705 4282424128
0.93596345 1.1732625 0.075616822 4281545523
0.97062159 1.1764039 0.075326987 4285032552
1.2257885 1.1776465 0.074111901 4289638062
-1.2040393 1.2079735 0.075670436 4284900966
-1.1716228 1.2303153 0.07749664 4284703587
-1.1277637 1.2426176 0.07469219 4284769380
-1.0719713 1.2385318 0.073134698 4285295724
-1.0231653 1.2283951 0.073727988 4286808963
-0.98944318 1.2160838 0.074543588 4287269514
-0.16861451 1.2080953 0.08081986 4280119069
-0.1093698 1.2041081 0.075599402 4284900710
-0.070722602 1.2284523 0.074620768 4285032808
-0.025392795 1.2418138 0.077036425 4284966759
0.024917148 1.2422827 0.076474287 4285098345
0.077569202 1.2306937 0.074301153 4286940805
0.10940465 1.2154068 0.076126941 4287928724
0.21903177 1.2216952 0.07294374 4282992969
0.93457109 1.2274112 0.074568927 4278848010
0.98265016 1.220284 0.077391185 4282729797
1.0229573 1.2259855 0.074924685 4284835173
1.0711653 1.2445344 0.074301004 4284900966
1.12588 1.2468436 0.074570157 4285032552
1.1759005 1.2283971 0.073122524 4287137928
1.2055897 1.2103232 0.073327005 4287927444
-1.1239737 1.2614446 0.072646268 4283387727
-1.0743283 1.2643305 0.073670879 4282664004
-1.032204 1.2596515 0.071302429 4282729797
-0.02208752 1.2600529 0.071711369 4288387995
0.023535304 1.257633 0.072561644 4284900966
0.19664402 1.2701771 0.071714513 4282992969
0.9484632 1.2589033 0.07430765 4278848010
0.96295273 1.2776926 0.074066855 4279571733
1.018169 1.2636644 0.077490404 4280361249
1.0891993 1.2508092 0.071751282 4284900966
1.1204305 1.2514027 0.071934864 4286282619
0.98769552 1.3006316 0.073676288 4286611584
-1.1148643 -1.2510606 0.12547377 4283979864
-1.080372 -1.2549554 0.12594455 4284572001
-1.0434858 -1.2627109 0.13272847 4279111182
-0.015909396 -1.2516564 0.12220325 4285822068
0.020061035 -1.2556825 0.12311371 4285760371
0.057821058 -1.2526051 0.12514424 4286743170
0.97842294 -1.2604759 0.13239214 4278848010
1.0238349 -1.2608187 0.12590393 4280821800
1.0753833 -1.260644 0.12409057 4284308829
1.1213815 -1.2689447 0.12475916 4288322202
1.178357 -1.2736678 0.12444555 4278216192
1.2178285 -1.2578609 0.1221223 4278216192
-1.205265 -1.2060124 0.12536822 4284111450
-1.1731799 -1.2273995 0.12368003 4284900966
-1.127586 -1.2447692 0.12441724 4285229931
-1.0705913 -1.2443182 0.12533712 4287072135
-1.0251307 -1.2262392 0.12448474 4288980132
-0.97676629 -1.2179793 0.12522143 4281940281
-0.94897521 -1.2024736 0.12570372 4278913803
-0.1035005 -1.2077632 0.12471402 4284900966
-0.073570848 -1.222929 0.12427555 4284835429
-0.026176235 -1.2377678 0.12365548 4285032552
0.025285551 -1.2380564 0.12279005 4286217338
0.079235837 -1.2304689 0.12516031 4289111974
0.10688906 -1.2073424 0.12505434 4290427578
0.94448978 -1.212033 0.12895866 4278848010
0.98191357 -1.2182647 0.12599373 4281216558
1.0265651 -1.2247428 0.12406664 4284703587
1.0715492 -1.2408961 0.1238545 4285098345
1.1258081 -1.2432166 0.12401777 4287006342
1.1774321 -1.2316135 0.12541883 4288456604
1.2069292 -1.2108104 0.12539935 4290230199
-1.2299466 -1.1703799 0.12606537 4284900966
-0.97152221 -1.174894 0.12610418 4290164406
-0.94102955 -1.1719624 0.12563263 4287927444
-0.12360087 -1.1713581 0.12522611 4284835173
-0.092906877 -1.1809196 0.1239972 4284900966
0.13080402 -1.1742545 0.12480501 4291019971
0.93878967 -1.1707063 0.12515785 4284374622
0.97206855 -1.1756396 0.1248844 4284046937
1.0052205 -1.1868454 0.12440033 4284900966
1.2299324 -1.1747807 0.12512095 4291019715
-1.2501123 -1.1043527 0.12696157 4284900966
-1.2452824 -1.1242937 0.12481094 4284900966
-0.95962054 -1.1268697 0.12621374 4291282887
-0.93919069 -1.1230597 0.12518445 4290624957
-0.15528637 -1.1247106 0.12390395 4284900966
-0.1383841 -1.1261255 0.124989 4284835173
0.14718443 -1.1250385 0.12514502 4291348680
0.15495607 -1.1255832 0.12580432 4286874756
0.94136691 -1.1263885 0.12525684 4284835173
0.96307164 -1.1259351 0.12494452 4284769636
1.2437931 -1.1296055 0.12639628 4291348680
1.2513347 -1.1143556 0.12460652 4290690750
-1.2565221 -1.0888774 0.12732051 4281636659
-1.2450162 -1.0742462 0.12480406 4284704611
-0.95635486 -1.0707389 0.12526457 4290756543
-0.94056743 -1.0811285 0.12497095 4290756543
-0.1598506 -1.0784638 0.12315457 4283979864
-0.14282493 -1.073826 0.12461254 4284900966
0.14578469 -1.071028 0.12450337 4290756543
0.15898333 -1.0794123 0.12527896 4287993237
0.94371486 -1.0739514 0.12570989 4283524433
0.95894861 -1.0736274 0.124978 4284704099
1.2425215 -1.0706656 0.12537922 4290822336
1.2561848 -1.0805722 0.1224494 4286808963
-1.2547945 -1.0490185 0.12793174 4278438146
-1.2276689 -1.0211483 0.12619795 4284182107
-1.0081747 -1.0061655 0.12415908 4288585374
