# .PCD v0.7 - Point Cloud Data file format
VERSION 0.7
FIELDS x y z rgb
SIZE 4 4 4 4
TYPE F F F U
COUNT 1 1 1 1
WIDTH 1087
HEIGHT 1
VIEWPOINT 0 0 0 1 0 0 0
POINTS 1087
DATA ascii
1.0243776 1.2292622 0.27398306 4284769380
1.0726731 1.2470424 0.27141875 4284900966
1.1274577 1.2477587 0.27112123 4285164138
1.1762357 1.230571 0.27210766 4284308829
1.2064397 1.210482 0.26974434 4283650899
-1.1228449 1.2605131 0.27460846 4282137660
-1.0728317 1.2640704 0.27381256 4281874488
-1.0318363 1.2594247 0.27129209 4282861383
-0.023582119 1.2597969 0.27181381 4279374354
0.021921242 1.2580873 0.27264109 4284900966
0.19859758 1.2676032 0.27226466 4279440147
0.94803488 1.2583461 0.27475715 4278848010
0.97443533 1.2884085 0.27607507 4282729797
1.0170369 1.2629962 0.27715579 4278848010
1.0887034 1.2509379 0.27207032 4284900966
1.1190697 1.2516305 0.27166903 4286151033
-1.1151879 -1.2509986 0.32516766 4283979864
-1.0792801 -1.255294 0.32379773 4284572001
-1.0429707 -1.2625276 0.32304296 4279111182
-0.011778606 -1.2513034 0.31877014 4286151033
0.020628542 -1.2565564 0.32049733 4286679425
0.058319472 -1.2524359 0.32554412 4286808963
0.97789645 -1.2600739 0.33045012 4278848010
1.0107471 -1.2653418 0.3259359 4278848010
1.07177 -1.2569457 0.32308328 4283650899
1.1166377 -1.2599417 0.3227039 4278848010
-1.2079279 -1.2023438 0.3249175 4283519313
-1.1727047 -1.2269708 0.31304565 4284900966
-1.1306486 -1.2436408 0.31930497 4285295724
-1.071806 -1.2436596 0.32571226 4287006342
-1.0246266 -1.2288723 0.32439342 4288387995
-0.97416562 -1.2147553 0.32535827 4282400832
-0.94876111 -1.2022339 0.32587594 4278913803
-0.10469313 -1.2013024 0.32548657 4284900966
-0.06571193 -1.2310201 0.32041895 4283984728
-0.024325354 -1.2404804 0.30956584 4285164138
0.02852229 -1.2415044 0.31306329 4286743682
0.080105163 -1.2322763 0.32081875 4288980644
0.10785986 -1.2071913 0.32229152 4290559163
0.94440937 -1.2121238 0.3295702 4278848010
0.97853303 -1.2187946 0.32572541 4281216558
1.0259001 -1.2251971 0.32346356 4284703587
1.0703772 -1.2396954 0.32229555 4285032552
1.1181037 -1.2427307 0.31850812 4286479998
1.1777115 -1.2244658 0.31796238 4288848546
1.2096782 -1.2033018 0.32595974 4290690750
-1.2291956 -1.1693066 0.32394826 4284900966
-0.97133017 -1.1743609 0.32546201 4290164406
-0.94119418 -1.1713988 0.32586315 4288190616
-0.1213658 -1.1701816 0.3252016 4284703587
-0.084677897 -1.1874701 0.32198367 4284900966
0.13164133 -1.1735116 0.32565564 4291085764
0.93904519 -1.1674103 0.32627952 4284572001
0.96914226 -1.1758158 0.32436636 4284178011
1.0032983 -1.1773984 0.32472283 4284900966
1.2310956 -1.1727585 0.32484001 4291085508
-1.2443234 -1.1267583 0.32491767 4284900966
-0.95682377 -1.1263196 0.32526591 4291282887
-0.9380694 -1.1222285 0.32606485 4290559164
-0.13804005 -1.1261716 0.32466173 4284835173
0.14694737 -1.1256205 0.32513589 4291348680
0.15612105 -1.122189 0.32514268 4288848546
0.94076961 -1.1238308 0.32561663 4284900966
0.96315247 -1.12442 0.32597923 4284704099
1.2439675 -1.128737 0.32473904 4291348680
1.2514204 -1.1146055 0.32281533 4291019715
-1.2591164 -1.0671583 0.325169 4278372353
-1.2445664 -1.0743979 0.3248603 4284574048
-0.95591128 -1.0714779 0.32526124 4290756543
-0.94163293 -1.0786629 0.32550564 4290756799
-0.16187465 -1.0707878 0.30097234 4281084972
-0.14271674 -1.0727452 0.32456005 4284900966
0.14594793 -1.0708631 0.32389399 4290756543
0.15897681 -1.0794663 0.32578844 4287927444
0.94305915 -1.0735571 0.32560685 4283524433
0.95982933 -1.0721766 0.32486951 4284638562
1.2436194 -1.0697645 0.32463548 4290690750
1.2549741 -1.0792959 0.32450482 4287927444
-1.2277211 -1.0213592 0.32529834 4284051033
-1.008067 -1.0060526 0.32583493 4288585374
-0.97363812 -1.023463 0.32424912 4289506476
-0.94476283 -1.0425785 0.32474625 4290559164
-0.15604387 -1.037392 0.30475965 4278848010
-0.12902725 -1.0228499 0.32455531 4284243036
-0.084792279 -1.0115383 0.32522291 4284900966
0.12973548 -1.0202962 0.32528618 4289243304
0.15627752 -1.0360913 0.32660392 4290756543
0.94694 -1.0425915 0.32541019 4284900710
0.97351032 -1.0245806 0.32507947 4284769636
1.0167561 -1.0111185 0.32573721 4284900966
1.0653383 -1.0040079 0.3274608 4284900966
1.1047359 -1.0047622 0.32854956 4284900966
1.2292447 -1.0241067 0.32463953 4289572269
1.2556738 -1.0411862 0.32401398 4290953922
-1.2088637 -0.99053419 0.32850385 4286216826
-1.1767447 -0.97246426 0.32606062 4284901735
-1.1240922 -0.96529686 0.32595357 4284900966
-1.071825 -0.96692353 0.32532167 4285558896
-1.0262706 -0.97526431 0.32490209 4286875012
-0.99105638 -0.9879427 0.31939447 4288387995
-0.10950112 -0.98761684 0.32345501 4284440415
-0.076172732 -0.9713192 0.32529071 4284703587
-0.027412672 -0.95980215 0.3250179 4284703587
0.025607882 -0.95771307 0.32513133 4285229931
0.076835684 -0.97205585 0.3252961 4287006342
0.11114873 -0.99240923 0.32580441 4288519581
0.98420054 -0.97742981 0.3251009 4282868295
1.0248526 -0.9742797 0.32486919 4284835173
1.0712944 -0.96206933 0.32444492 4284769892
1.1269488 -0.95980239 0.32417646 4284770404
1.1735197 -0.97289586 0.32536522 4286545791
1.2093701 -0.99054331 0.32372656 4288059030
-1.1216288 -0.94868773 0.32342035 4284900966
-1.0767376 -0.94586861 0.32406235 4283453520
-1.0216869 -0.92782003 0.33134687 4282006074
-0.98872393 -0.92744869 0.32655609 4281479730
-0.062660851 -0.94323361 0.32447094 4284900966
-0.02566617 -0.93874037 0.32453743 4284769380
0.019343179 -0.93889165 0.3248809 4283124555
0.98951578 -0.94235343 0.32255128 4278216192
1.0272547 -0.93657351 0.32263422 4281945657
1.0749701 -0.93477559 0.32474902 4283321934
1.1176353 -0.94026488 0.32470512 4282795590
1.150152 -0.93462139 0.32420084 4278848010
-1.0667059 -0.85593873 0.32472235 4279176975
-1.0227623 -0.88349593 0.32807407 4279111182
-1.1080405 -0.8453989 0.32774901 4279176975
-1.1122928 -0.15114237 0.32266179 4285361517
-1.0773079 -0.15442856 0.32523602 4284177243
-1.0414784 -0.15123653 0.32586551 4287598479
-0.066959262 -0.16957895 0.32182875 4279505940
-0.020762613 -0.16940084 0.3233538 4282532418
0.020329747 -0.16608244 0.32298538 4285427310
0.057982296 -0.15782467 0.32239455 4287927444
1.0326922 -0.15864995 0.3251622 4284176987
1.0804795 -0.16243656 0.32261452 4280904745
1.1048605 -0.1504741 0.31782109 4286545791
-1.2061824 -0.10728021 0.3250148 4284835173
-1.1743158 -0.12386347 0.32648185 4284045657
-1.1289793 -0.13766876 0.32535702 4284637794
-1.0690557 -0.14318879 0.32560211 4286743170
-1.0221797 -0.12908946 0.32543513 4287927444
-0.98178327 -0.10521347 0.32571161 4285624689
-0.10772767 -0.10800648 0.32372138 4283387727
-0.07590159 -0.12247635 0.32418391 4284835173
-0.027256761 -0.14058298 0.32428533 4285032552
0.029577542 -0.14373598 0.32530954 4287466893
0.076986894 -0.12851214 0.32438111 4289243304
0.11977573 -0.10872813 0.32558116 4290888129
0.98406619 -0.11753073 0.3258962 4281742902
1.0222703 -0.12645821 0.32511699 4284308829
1.0717936 -0.13854602 0.32388222 4285032808
1.1293269 -0.1431497 0.32420522 4287203977
1.1765509 -0.12451059 0.32189977 4289243304
1.2048125 -0.10541769 0.318032 4290295992
-1.2218397 -0.073976524 0.32690847 4284769380
-1.1876531 -0.090541102 0.32548711 4284900966
-0.9707185 -0.077644914 0.32559937 4290559164
-0.940633 -0.067098185 0.3241705 4284835173
-0.12823416 -0.077500507 0.32352832 4284769380
0.034197059 -0.086936794 0.32696125 4290493371
0.078053437 -0.076064982 0.32715049 4290888129
0.12837216 -0.072700642 0.32575881 4290953922
0.16266055 -0.06983494 0.32567599 4285098345
0.94257748 -0.068917498 0.32399812 4278848010
0.97739249 -0.075864218 0.3252846 4284243036
1.0056332 -0.091540374 0.32427153 4284900966
1.2265344 -0.076630257 0.32316792 4290888129
-1.2507179 -0.015380192 0.32717341 4284835430
-1.2421449 -0.02791268 0.32469535 4284900966
-1.0286925 -0.035453264 0.3275938 4291414473
-0.96557015 -0.024671752 0.3243252 4291348680
-0.94350326 -0.028278254 0.32629752 4291414473
-0.15621631 -0.017180007 0.32352322 4284900966
-0.14400768 -0.031670697 0.3241154 4284900966
0.14037575 -0.027923647 0.32426858 4291348680
0.16429365 -0.019380618 0.32482964 4286545791
0.94370055 -0.023087105 0.32312512 4283455312
0.96856117 -0.028899752 0.32436523 4284769636
1.2463957 -0.02497478 0.32389358 4291282887
1.2507839 -0.0093104448 0.32057986 4291414473
-1.2533469 0.022648223 0.32229683 4284900966
-1.2457353 0.027485782 0.32378089 4284312925
-0.95798779 0.026693456 0.32624733 4290822336
-0.94797552 0.019135047 0.32459882 4290493371
-0.15278135 0.024547279 0.32410991 4284900966
-0.14619678 0.026036235 0.32331407 4284900966
0.1405347 0.026369998 0.32348344 4290822592
0.15871793 0.021032199 0.32445484 4290888129
0.9457714 0.020693636 0.32421887 4283523921
0.96312886 0.026640013 0.32452673 4284835173
1.2459513 0.027293818 0.32233196 4290888129
1.255164 0.012596521 0.32179448 4287335307
-1.2304995 0.079181537 0.32544178 4283395407
-1.0135514 0.088117883 0.32880518 4289901234
-0.97537839 0.073736891 0.32491171 4289309097
-0.93256366 0.074095212 0.33003846 4288585374
-0.15272604 0.08926744 0.32531288 4284900966
-0.12981425 0.076847717 0.32404819 4284835429
0.12879525 0.073861942 0.32366082 4289769648
0.15186636 0.054620482 0.32160664 4290624957
0.92072141 0.092342481 0.32613188 4278848010
0.97624105 0.07452447 0.32495323 4284835173
1.0103198 0.091808632 0.32557636 4284900966
1.2309846 0.073778942 0.3252953 4288980132
-1.2123088 0.11714359 0.32575056 4283915351
-1.1774507 0.13237667 0.32627538 4284177499
-1.1270939 0.14223674 0.32590467 4284769380
-1.0752708 0.14123474 0.32598284 4285098345
-1.0266955 0.12733659 0.32465351 4286874756
-0.99258775 0.10569632 0.32379666 4287730321
-0.92964834 0.12282445 0.32877824 4289967027
-0.12665874 0.11879502 0.32462162 4282137917
-0.075172611 0.12408596 0.32421806 4284111450
-0.027507914 0.13657193 0.32365179 4284900966
0.025010504 0.14054123 0.32370502 4285032552
0.074331529 0.1291061 0.32418007 4286808963
0.10653868 0.10667517 0.32392597 4288124823
0.93084198 0.11501279 0.32880193 4278848010
0.99233955 0.10583814 0.32537365 4284900966
1.0242299 0.12249508 0.32487246 4284900965
1.0726004 0.13678454 0.32536465 4284835174
1.1297482 0.14336836 0.3235684 4285032552
1.1746631 0.1299748 0.32287967 4285098345
1.2109722 0.1106279 0.32411066 4286808963
-1.170427 0.15690929 0.32513016 4281413937
-1.126163 0.15631145 0.3251673 4283979864
-1.0830271 0.15238212 0.32166106 4284900966
-0.10636127 0.15649709 0.32431597 4278848010
-0.087284304 0.16993096 0.32387346 4278848010
-0.010714745 0.1517185 0.32301202 4284900966
0.018168092 0.1513119 0.32314903 4284835173
1.0862651 0.15117162 0.32461107 4285098344
1.1258019 0.15190385 0.32322606 4287204233
-0.014725208 0.89647114 0.32405466 4278848010
1.0392586 0.87776363 0.32915208 4278848010
-1.118085 0.94783688 0.32630497 4285361517
-1.0743136 0.94385964 0.32568899 4284045657
-1.0387135 0.94481248 0.32529151 4284308829
-0.10481901 0.94156158 0.32446349 4284900966
-0.070907898 0.92957598 0.32529917 4280032796
-0.028128829 0.93821311 0.32611057 4283650899
0.018645419 0.94441593 0.3251518 4287072135
1.0182245 0.94044918 0.3230131 4278848010
1.0744414 0.94270188 0.32616398 4284177243
1.1229324 0.94035095 0.32561931 4287795858
1.1692959 0.93573964 0.32655492 4287012742
1.2234344 0.94318855 0.32686806 4278216192
-1.2049581 0.99236822 0.3289991 4284247132
-1.1743712 0.96955574 0.32689911 4283788885
-1.1283939 0.95539701 0.32592723 4285558896
-1.069858 0.95903301 0.32407248 4287401100
-1.0254748 0.97257096 0.32568926 4288717216
-0.98660117 0.98850894 0.32417706 4287137928
-0.11113468 0.98102921 0.32560465 4282868295
-0.078813709 0.97017753 0.32706732 4284376158
-0.028456252 0.95500338 0.32636237 4285295724
0.024147367 0.95314682 0.32635644 4287335307
0.079476222 0.97035092 0.32578635 4288914339
0.11050105 0.98922497 0.32619476 4284835173
0.99197412 0.99306655 0.32480675 4284637794
1.0278863 0.97776651 0.32522506 4284835173
1.0714288 0.96588188 0.32548749 4285164138
1.1279277 0.95728809 0.32574391 4287335307
1.1790309 0.97187746 0.32605055 4289506476
1.215163 0.98614484 0.32575259 4286816900
1.2682526 0.97688705 0.32658157 4278216192
-1.2296354 1.0248032 0.32682768 4283331150
-1.0060984 1.0087296 0.32524034 4287993237
-0.97340459 1.0236259 0.32429361 4290624957
-0.94804031 1.0422152 0.32308483 4291282887
-0.12378427 1.0250567 0.32672209 4284374622
-0.078445815 1.0162882 0.32386065 4284900966
-0.027288582 1.0065877 0.32767582 4284900966
0.12730287 1.025723 0.325984 4290822336
0.17012404 1.0303817 0.32464465 4280953386
0.20096961 1.049271 0.32778707 4278848010
0.9435128 1.043195 0.32785386 4284900710
0.97386575 1.0256379 0.32685888 4284440415
1.0161711 1.0203737 0.32604444 4284900966
1.0692846 1.0313333 0.32519212 4284900966
1.1000476 1.0318475 0.33767849 4284900966
1.1997782 1.0055755 0.32783034 4289901234
1.2283568 1.0210196 0.32522789 4290165942
1.2569914 1.0326478 0.32337004 4285822068
-1.2509282 1.0935891 0.32673961 4284900966
-1.2475538 1.0694609 0.32597518 4284312157
-0.96189678 1.0714939 0.32441014 4291348681
-0.94537354 1.075544 0.32423669 4291414473
-0.15572557 1.0864301 0.31810647 4283321934
-0.14157453 1.0707712 0.32609153 4284703587
0.13819009 1.0717746 0.32587141 4290493371
0.16026919 1.0786825 0.32579422 4289506476
0.21018557 1.0893141 0.32130429 4278848010
0.94158727 1.0752995 0.32695085 4282669636
0.9636212 1.0685114 0.32562345 4284835174
1.0123606 1.0656583 0.32208225 4284900966
1.2439026 1.0712466 0.32461697 4289703855
1.2614766 1.0711527 0.3258656 4283585362
-1.250989 1.1096581 0.32606822 4284900966
-1.2485316 1.1289799 0.32670036 4284900966
-0.96451485 1.1279439 0.32490963 4290493371
-0.94643134 1.1240472 0.32647312 4290888129
-0.15956581 1.1176653 0.31795859 4282598211
-0.14525464 1.1266894 0.32697487 4284637794
0.13935083 1.1234978 0.32556289 4290361785
0.15714116 1.1186925 0.32622465 4287137928
0.2125266 1.1238135 0.3225207 4278760456
0.93976599 1.1261144 0.32536399 4283590226
0.95589811 1.1272357 0.32282636 4284900966
1.0144637 1.1099117 0.32509306 4284900966
1.2454466 1.1202662 0.32084376 4289440683
1.2575657 1.1135076 0.32602447 4278848010
-1.2337556 1.1707873 0.32623452 4284900966
-0.97163337 1.1763759 0.32453778 4289374890
-0.94251204 1.1606863 0.3228451 4290427578
-0.17180887 1.1733822 0.31766522 4278531077
-0.12923142 1.1782357 0.32614106 4284900966
0.12761737 1.1769758 0.32476559 4288652703
0.22397813 1.1704242 0.32324618 4279013132
0.93405724 1.1722261 0.32454327 4281150765
0.9666149 1.1762339 0.32466504 4284900966
1.2228017 1.1866496 0.31365025 4287006342
-1.2087457 1.2068813 0.32643825 4281874488
-1.1555096 1.2428486 0.32542363 4282137660
-1.1264714 1.2422535 0.32369661 4284769380
-1.0718323 1.2377156 0.32502684 4285361517
-1.0221943 1.2284123 0.32440585 4286808963
-0.98762661 1.2131432 0.32272768 4287006342
-0.16158876 1.2039093 0.3230153 4278468100
-0.12061042 1.2148664 0.32531956 4282934857
-0.073762774 1.2266132 0.32468864 4283454288
-0.024683038 1.2419295 0.32608214 4284308829
0.025636975 1.2416948 0.32784185 4285098345
0.074089214 1.2272277 0.32369739 4286743170
0.10785136 1.2025511 0.32403687 4288387995
0.21945691 1.2206812 0.32291728 4279440147
0.93415767 1.2267846 0.32376698 4278848010
0.98100787 1.2220156 0.32638758 4281545523
1.0250542 1.2303234 0.32421863 4284703587
1.0693752 1.2468965 0.32170293 4284900966
1.1295489 1.247782 0.32298163 4285229931
1.1759355 1.2309798 0.31873706 4284111707
1.2077557 1.2104344 0.32051021 4283124555
-1.1230516 1.2598213 0.32457009 4282335039
-1.0729975 1.263515 0.32360527 4282006074
-1.0311922 1.2593477 0.32388476 4282861383
-0.026496137 1.2593851 0.3111293 4279374354
0.021659805 1.2581536 0.30728918 4284900966
0.19908564 1.2669604 0.32224599 4279440147
0.94792789 1.2582068 0.32482859 4278848010
0.9742136 1.2882202 0.32657617 4282729797
1.0167551 1.2628293 0.32725549 4278848010
1.0893021 1.2509272 0.31780717 4284900966
1.1173936 1.2516207 0.31614807 4286019447
-1.1159723 -1.2509738 0.37276998 4283453520
-1.0826428 -1.2568736 0.37355876 4282927176
-1.0428396 -1.262481 0.37148193 4279111182
0.028472375 -1.2607782 0.37443441 4281282351
0.058442783 -1.2523937 0.37512046 4286808963
0.97856635 -1.2606832 0.37276995 4278848010
1.0093281 -1.2682366 0.36990118 4278848010
1.0714571 -1.2569047 0.37358338 4283914071
1.1156372 -1.2600504 0.3730374 4278848010
-1.2066513 -1.2010835 0.37486196 4284900966
-1.150526 -1.2428265 0.36897579 4284900966
-1.1236005 -1.2450904 0.36973727 4285690482
-1.0695678 -1.2445467 0.37213755 4286282619
-1.0234201 -1.2288567 0.37438846 4288059030
-0.97404099 -1.2149358 0.375025 4282400832
-0.94870836 -1.202175 0.3748309 4278913803
-0.10452187 -1.2015243 0.37914255 4284900966
-0.073455617 -1.224691 0.37520215 4283133769
0.083747461 -1.2347952 0.37419716 4288719007
0.10769551 -1.2092952 0.37771598 4290559164
0.94619709 -1.2159472 0.36521876 4278848010
0.9807815 -1.2167932 0.37418264 4281677109
1.0254129 -1.2259047 0.37443683 4284506208
1.0699018 -1.2389729 0.37276098 4285032552
1.1105436 -1.2409471 0.37254608 4285427310
1.2105912 -1.2037534 0.3624655 4290953922
-1.2288566 -1.169739 0.37506086 4284900966
-0.97117651 -1.1750371 0.37512559 4290098869
-0.94127929 -1.1715083 0.37600338 4288256409
-0.11896142 -1.1718676 0.37434492 4284900710
-0.079263195 -1.1922797 0.37453568 4284900966
0.13183422 -1.17398 0.37588623 4291085764
0.94103658 -1.1680137 0.36859506 4284506208
0.9692679 -1.1755302 0.37489229 4284112474
1.0030928 -1.1772109 0.37607348 4284900966
1.2335658 -1.1704501 0.36312336 4290690750
-1.2443653 -1.1265916 0.3748084 4284835173
-0.95665431 -1.126019 0.37548915 4291282887
-0.93798751 -1.1221279 0.37631789 4290559164
-0.13767724 -1.1240792 0.37582523 4284769380
0.14703113 -1.1252046 0.37645957 4291348680
0.15640615 -1.1217769 0.37718502 4288716960
0.942285 -1.1234607 0.37220204 4284900966
0.96287262 -1.124241 0.37544554 4284704099
1.2422168 -1.1295962 0.37423933 4291348680
1.2517802 -1.1150317 0.37304804 4289769648
-1.2592084 -1.0677122 0.37516093 4278372353
-1.2446901 -1.0751262 0.37487304 4284508768
-0.9561156 -1.0706624 0.37509289 4290756543
-0.94158882 -1.0787694 0.37551019 4291085764
-0.1427204 -1.0727044 0.37485272 4284835173
0.14733183 -1.0737554 0.37534508 4290822336
0.1600251 -1.0789311 0.37413689 4287664272
0.94277114 -1.0731647 0.37514776 4283262285
0.95933944 -1.0731647 0.37458342 4284638562
1.2426444 -1.067915 0.37515199 4290690750
1.2555046 -1.0806167 0.37448946 4287795858
-1.2278621 -1.0213795 0.37550884 4283920216
-1.0078933 -1.006111 0.37611943 4288585374
-0.97438097 -1.0235969 0.37541085 4289506476
-0.94472611 -1.042574 0.37479523 4290559164
-0.12804843 -1.0231261 0.37541878 4284637794
-0.084938347 -1.01171 0.3740716 4284900966
0.12932271 -1.0202453 0.37546739 4289243304
0.15697643 -1.0373056 0.37326464 4290756543
0.94694936 -1.0421785 0.37480527 4284900710
0.9726308 -1.0238318 0.37433296 4284769636
1.0132697 -1.0089657 0.36750686 4284900966
1.0625244 -1.0042572 0.3648307 4284900966
1.1033401 -1.00456 0.368709 4284900966
1.2286197 -1.0236424 0.37488618 4289572269
1.2548634 -1.0396718 0.37237543 4290888129
-1.2087061 -0.98974931 0.37565666 4286611584
-1.1758506 -0.97234607 0.37548772 4284638819
-1.1238257 -0.96540469 0.375956 4284900966
-1.0719405 -0.96692687 0.3752802 4285558896
-1.0271882 -0.97594887 0.37542099 4286874756
-0.99432981 -0.98929179 0.37516689 4288190616
-0.10834692 -0.9876436 0.37505355 4284900966
-0.076305278 -0.97132951 0.3756665 4284703587
-0.026862655 -0.96012735 0.37493455 4284703587
0.025319561 -0.95783633 0.37398976 4285164138
0.076591551 -0.97210497 0.37514812 4286940549
0.11055329 -0.99238902 0.37501898 4288519581
0.9842242 -0.97736722 0.37497991 4282868551
1.0242472 -0.97403204 0.37527883 4284835173
1.0713449 -0.96201235 0.37458226 4284835428
1.1270328 -0.95999503 0.37462413 4284966759
1.1740531 -0.97307718 0.37559178 4286611584
1.209682 -0.99094981 0.3742561 4287927444
-1.1228995 -0.94872755 0.37531972 4284900966
-1.0767235 -0.94584382 0.37415016 4283453520
-1.0239031 -0.93020982 0.37683401 4282269246
-0.98925632 -0.92634898 0.3797639 4280887593
-0.063511945 -0.94361985 0.37468213 4284900966
-0.025712378 -0.93858534 0.37619871 4284177243
0.019605828 -0.9388696 0.3756333 4282861383
0.98978728 -0.94211882 0.37217388 4278216192
1.0264589 -0.93584877 0.37329859 4281814327
1.0751741 -0.93459702 0.37565586 4283124555
1.1182353 -0.93941373 0.37368244 4282664004
1.1500676 -0.9345845 0.37933132 4278848010
-1.0646956 -0.85675198 0.3775385 4279176975
-1.023276 -0.88304937 0.37440798 4279111182
-1.1083393 -0.84535563 0.36958197 4279176975
-1.1123782 -0.15114149 0.37285396 4285493103
-1.0773913 -0.15450706 0.37541452 4284243036
-1.0415866 -0.15131247 0.37694153 4287598479
-0.066969618 -0.16958684 0.37209862 4279505940
-0.020550396 -0.17001848 0.3728219 4282466625
0.020717414 -0.16455282 0.37294671 4285493103
0.057954531 -0.15789069 0.37273934 4287927444
1.031321 -0.15909716 0.37416792 4283914071
1.0762022 -0.16727749 0.37468681 4278872074
-1.2052 -0.10821176 0.3770102 4284900966
-1.1746933 -0.12526861 0.37318751 4283979864
-1.1289171 -0.13917926 0.37427384 4284572001
-1.0702354 -0.14324214 0.37635887 4286743170
-1.0221857 -0.12900937 0.3751294 4288059030
-0.98202568 -0.10531371 0.37530819 4285624689
-0.10686637 -0.11015415 0.37209502 4282729797
-0.076181106 -0.12256464 0.37428066 4284835173
-0.027148994 -0.14059465 0.37396601 4285032552
0.029191123 -0.14390829 0.37503964 4287401100
0.076889314 -0.1289963 0.37496421 4289177511
0.11979517 -0.10868908 0.37591484 4290164406
0.98408842 -0.11706845 0.37578169 4282006074
1.0204138 -0.12498835 0.3752695 4284243036
1.0713421 -0.13793629 0.37441555 4285032808
1.1289161 -0.14232898 0.37495136 4287072391
1.1774857 -0.12269991 0.37289581 4289177511
1.2064855 -0.10167094 0.37334707 4290493371
-1.2216522 -0.077271707 0.37259978 4282137660
-1.1886768 -0.089776814 0.36238182 4284900966
-0.97087258 -0.078153126 0.37550038 4290559164
-0.94075364 -0.067385867 0.37774631 4284835173
-0.12805723 -0.077726007 0.37372813 4284638050
0.03400816 -0.086964145 0.37745631 4290493371
0.078775033 -0.075754024 0.3767522 4290888129
0.12809771 -0.073312752 0.37598795 4290230199
0.16275327 -0.069678053 0.37541553 4279440147
0.94252622 -0.068851091 0.37516811 4278848010
0.9775098 -0.076276988 0.3749716 4284177243
1.0059365 -0.092187151 0.38008681 4284900966
1.22329 -0.078980759 0.37020901 4290427578
-1.2507436 -0.015158916 0.37727496 4280427300
-1.2429203 -0.032662429 0.36792541 4282795590
-1.0315907 -0.036369368 0.37632447 4291414473
-0.96668947 -0.0230377 0.37607032 4291348680
-0.9435122 -0.028265184 0.37552124 4291348680
-0.15624242 -0.017140662 0.37356263 4284769380
-0.14517263 -0.028403815 0.37259051 4284769380
0.14034763 -0.02750911 0.37450463 4291348680
0.16375144 -0.019402117 0.37417242 4285427310
0.9437682 -0.023181554 0.37454471 4283586386
0.96877241 -0.028524451 0.37462866 4284769380
1.2472152 -0.0238529 0.3685241 4289901234
1.2523044 -0.0028033615 0.37708193 4291414473
-1.2544121 0.025996486 0.37258554 4280919081
-1.24424 0.027859682 0.37152886 4283072074
-0.95767587 0.02729677 0.37561235 4290822336
-0.94741541 0.020773737 0.37528181 4290164406
-0.15276361 0.024256043 0.37418452 4284900966
-0.14629775 0.025911164 0.37331304 4284900966
0.14058615 0.028727155 0.37419242 4290756799
0.15855241 0.020767802 0.37535596 4290888129
0.94606626 0.022194246 0.37514761 4283917143
0.96315944 0.027125468 0.37481245 4284835429
1.2469251 0.030859554 0.374623 4290953922
1.2511704 0.019849051 0.37885028 4291151301
-1.2273316 0.080247693 0.37263119 4282284094
-1.0139456 0.088435113 0.37600258 4289901234
-0.97622204 0.074080192 0.37583753 4289243304
-0.93315279 0.070800677 0.37506831 4288453788
-0.15270656 0.089398697 0.37507662 4284900966
-0.12990673 0.076934628 0.37339783 4284769892
0.12944439 0.074330769 0.37398276 4289638062
0.15203975 0.054371372 0.36975363 4290624957
0.92064655 0.092163846 0.37871253 4278848010
0.97607207 0.07455644 0.37528008 4284835173
1.0103199 0.091789857 0.37724611 4284900966
1.2304554 0.076839551 0.37658343 4289243304
-1.2091831 0.11813741 0.37293759 4283917655
-1.1773362 0.1317874 0.3761692 4283789909
-1.1266837 0.14177096 0.37688735 4284769380
-1.0755554 0.14107804 0.37639853 4285098345
-1.0266204 0.1254198 0.37654668 4286940549
-0.99424899 0.10535188 0.37244037 4287532686
-0.92933196 0.11860908 0.37762195 4289901234
-0.1252145 0.117442 0.37472934 4282400832
-0.075105943 0.12448952 0.37334123 4284111450
-0.027722741 0.13654304 0.37427598 4284900966
0.024823604 0.14047308 0.37400684 4285032552
0.073307998 0.1300332 0.37394041 4286216826
0.10656615 0.10660008 0.3746635 4288124823
0.93070525 0.11477691 0.3766228 4278848010
0.99226028 0.10594784 0.37498567 4284900966
1.0235171 0.12281284 0.37445819 4284900965
1.0719888 0.13624442 0.37410185 4284900710
1.1289626 0.14318518 0.37428695 4284967015
1.1761342 0.13006744 0.37221447 4284966759
1.2127281 0.11021597 0.37420505 4286677377
-1.169122 0.15673257 0.36979893 4288322202
-1.1251615 0.15660495 0.37642634 4285690482
-1.0891218 0.15245964 0.37630796 4284900966
-0.10614128 0.15669112 0.37421948 4278848010
-0.086684108 0.17026517 0.37387457 4278848010
-0.010953235 0.15171833 0.37224862 4284900966
0.017780805 0.15136638 0.37195772 4284900966
1.0859604 0.15112802 0.37417641 4285164137
1.1250206 0.15206033 0.37357453 4287204233
-0.01503408 0.89650249 0.37427527 4278848010
1.0379676 0.87835962 0.37674788 4278848010
-1.1192769 0.94755566 0.37440389 4285164138
-1.0768187 0.94471365 0.37318155 4284506208
-1.039731 0.94423568 0.36052996 4283321934
-0.10487811 0.94157869 0.37465626 4280032284
-0.07093744 0.92956835 0.37532318 4280032796
-0.027851457 0.93793923 0.37480557 4283585106
0.019238383 0.94478583 0.37469655 4287072135
1.0183494 0.94034028 0.3724288 4278848010
1.0738306 0.94268507 0.37531906 4284177243
1.123531 0.9405821 0.37567958 4287795858
1.1696999 0.93587494 0.37583259 4287012998
1.2233367 0.94311076 0.37624449 4278216192
-1.2059044 0.99290776 0.3768295 4284247132
-1.1744161 0.9696455 0.37649575 4283658323
-1.1282592 0.95527768 0.37591681 4285690482
-1.0700321 0.9590829 0.37428674 4287335307
-1.0266825 0.9738546 0.37475729 4288651167
-0.98562211 0.98902565 0.374201 4285953654
-0.11119058 0.98103499 0.37586963 4282407744
-0.078755252 0.97020417 0.3764216 4284244316
-0.027589593 0.95450073 0.37493542 4285295724
0.024278734 0.95314085 0.37577602 4287335307
0.079290517 0.97042519 0.37573639 4288914339
0.11055931 0.98901361 0.37585548 4285229931
0.99209094 0.99298501 0.37483644 4284703587
1.02823 0.97783095 0.37516686 4284835173
1.0710323 0.96611255 0.37521732 4285164138
1.1291203 0.95704269 0.3761116 4287401100
1.1784055 0.97130507 0.37637228 4289440683
1.2154603 0.98624414 0.37542525 4286751106
1.2680588 0.97658604 0.3766886 4278216192
-1.2296885 1.025031 0.37664807 4283461968
-1.0059348 1.0088049 0.37523106 4287993237
-0.9738186 1.0236493 0.37491503 4290559164
-0.9479562 1.0425224 0.37768391 4291282887
-0.12383846 1.024377 0.37613359 4284374622
-0.077472575 1.0158606 0.37472937 4284900966
-0.02351914 1.006693 0.37713739 4284900966
0.12698418 1.0251505 0.37550133 4290756543
0.17031033 1.0307604 0.37451324 4280953386
0.2010642 1.049545 0.37511316 4278848010
0.94416398 1.0419844 0.37264892 4284900710
0.97392583 1.0259898 0.37603605 4284506208
1.0166279 1.0202221 0.37653762 4284900966
1.0541072 1.0310618 0.37966186 4284900966
1.1002591 1.0318716 0.36997777 4284900966
1.1999511 1.0057858 0.36760262 4289835441
1.2282624 1.0207088 0.37523693 4289772208
1.2573613 1.0332789 0.37143824 4285098345
-1.250905 1.0930774 0.37657022 4284900966
-1.2477258 1.0701587 0.37649569 4284312157
-0.96194756 1.0714688 0.37469035 4291348680
-0.94537377 1.0758338 0.37441453 4291414473
-0.15123673 1.0912893 0.375664 4282269246
-0.14156921 1.0708104 0.37642092 4284769380
0.13813987 1.0720925 0.37530056 4290361785
0.16115391 1.0789683 0.37476963 4289045925
0.21029833 1.090278 0.37806302 4278848010
0.94086474 1.0777246 0.37421516 4282868295
0.96349472 1.0682422 0.37594792 4284835174
1.0123465 1.0657078 0.37277308 4284900966
1.2437016 1.0713561 0.37506923 4290164406
1.2614821 1.071089 0.37538421 4283585362
-1.250937 1.1097356 0.37649083 4284900966
-1.2479855 1.1323651 0.3766332 4284900966
-0.96454507 1.1277888 0.37487713 4290493371
-0.94617033 1.1244429 0.37672979 4290888129
-0.15115842 1.1097546 0.37660494 4283782485
-0.14521503 1.1272618 0.37642491 4284572001
0.13909221 1.1233783 0.37582064 4290361785
0.15778939 1.1168467 0.37325349 4287137928
0.21253009 1.1237254 0.37234375 4278760456
0.93973774 1.1263011 0.37651572 4283721300
0.95222247 1.1291436 0.3759768 4284900966
1.014479 1.1100605 0.37656149 4284900966
1.2457807 1.1156843 0.37500519 4290164406
1.2576375 1.1128566 0.37596315 4278848010
-1.2338965 1.1705865 0.37571636 4284900966
-0.97161484 1.1760888 0.37419081 4289309097
-0.94262397 1.1610069 0.37403065 4290427578
-0.17951921 1.1794027 0.37492645 4278216192
-0.12943093 1.1787766 0.37658769 4284900966
0.12829603 1.175225 0.37518835 4288390299
0.22400734 1.1704512 0.37324411 4279078669
0.93357569 1.1727847 0.37489995 4281019179
0.96502668 1.1789465 0.37627122 4284900966
-1.2091446 1.2064047 0.37622395 4281874488
-1.1553979 1.2428958 0.37533563 4282137660
-1.125242 1.2417921 0.37465709 4284835173
-1.0719404 1.2378727 0.37568456 4285361517
-1.0224516 1.2282251 0.37476319 4286808963
-0.98532456 1.2105448 0.37396428 4287203721
-0.16971289 1.2061772 0.37749711 4278216192
-0.11751141 1.2146081 0.37506279 4283262542
-0.076177806 1.2252936 0.37274593 4284507487
-0.02639593 1.2414552 0.37046269 4284835173
0.02429245 1.2425016 0.37330887 4285032552
0.074715704 1.2261509 0.37560797 4286808963
0.10642371 1.2032233 0.37283388 4288716960
0.21954045 1.220481 0.3723022 4279440147
0.9340753 1.2266593 0.37355992 4278848010
0.98028219 1.2217431 0.37738651 4281611316
1.0212705 1.2298394 0.37468442 4284506208
1.1350114 1.2468069 0.35309505 4285164138
1.1663291 1.2354671 0.35559672 4286545791
-1.1217889 1.2597659 0.37552032 4282400832
-1.0730209 1.2644992 0.37422419 4281874488
-1.0318372 1.2595201 0.37229258 4282861383
0.19957308 1.2663184 0.37216622 4279440147
0.9478209 1.2580678 0.37488368 4278848010
0.97399175 1.2880321 0.3770574 4282729797
1.0164633 1.2626574 0.37859672 4278848010
-1.1212838 -1.2505748 0.42459482 4279900698
-1.0832509 -1.2570204 0.42371053 4282137660
-1.0426953 -1.2624296 0.42474136 4279111182
0.028806066 -1.2607347 0.42509469 4279111182
0.058565877 -1.252352 0.42466331 4286874756
1.0711504 -1.2568648 0.42294934 4283848278
1.1146381 -1.2601591 0.42329755 4278848010
-1.2070825 -1.2005831 0.4254306 4284900966
-1.0635105 -1.2473034 0.42451903 4284045657
-1.0230895 -1.2297823 0.42447817 4287861651
-0.9740175 -1.215112 0.42507595 4282400832
-0.94865388 -1.2021142 0.4254809 4278913803
-0.10437636 -1.2017127 0.42474335 4284900966
-0.073481135 -1.2246526 0.42602766 4283199306
0.080977537 -1.2371545 0.42583987 4288784033
0.10508092 -1.2148293 0.42489266 4290427322
0.98516452 -1.2147694 0.42497572 4281940281
1.0244831 -1.2272509 0.42334956 4284440415
1.0706365 -1.2386142 0.42245644 4285032552
1.1108042 -1.2409246 0.42226011 4285427310
-1.2289584 -1.1695734 0.42543584 4284900966
-0.97128022 -1.1747433 0.42535812 4290098869
-0.94116813 -1.1717948 0.42546582 4288124823
-0.11964322 -1.1709743 0.42564112 4284900710
-0.079932407 -1.1919096 0.42419633 4284900966
0.13262397 -1.1729399 0.42449555 4291086020
0.94753951 -1.1590849 0.42507952 4284900966
0.96982729 -1.1752808 0.42452782 4284243804
1.0098736 -1.1814071 0.42973691 4284900966
1.243138 -1.1547216 0.4228043 4291414473
-1.2444366 -1.1264745 0.42493862 4284900966
-0.9553889 -1.1285545 0.42343041 4291348936
-0.93761474 -1.1226958 0.42632142 4290493372
-0.1375854 -1.1240574 0.42471939 4284835173
0.14745408 -1.1278616 0.42387325 4291348680
0.15569447 -1.1211388 0.42537445 4289177511
0.94412321 -1.1224456 0.4254387 4284900966
0.96311194 -1.1239378 0.42520952 4284704099
1.2432621 -1.1341969 0.41912436 4291348680
1.2519205 -1.1147609 0.42359686 4289243304
-1.2593006 -1.0682936 0.42565489 4278372353
-1.2440578 -1.0718069 0.42532277 4284574049
-0.95712757 -1.0741787 0.42428017 4290690750
-0.94120598 -1.0797617 0.425515 4291151301
-0.14264065 -1.0739869 0.42579409 4284703587
0.14766544 -1.0736042 0.42484772 4290822336
0.16006711 -1.0787863 0.42571554 4287927444
0.94369483 -1.0732521 0.42445019 4283393359
0.95859641 -1.0743407 0.42481592 4284638562
1.2454104 -1.0665566 0.41966659 4290756543
1.2557764 -1.0796498 0.42418429 4287466893
-1.2276608 -1.021441 0.424101 4283789397
-1.0080163 -1.0060009 0.42556199 4288585374
-0.9746483 -1.0232273 0.42502803 4289440683
-0.94468927 -1.0425694 0.42483079 4290559164
-0.1268912 -1.0224473 0.42378718 4284440415
-0.085084416 -1.0118818 0.42291313 4284900966
0.12981468 -1.0200714 0.42456782 4289309097
0.15654498 -1.0364429 0.42331153 4290756543
0.94696409 -1.0411857 0.4195267 4284900710
0.97249991 -1.0237054 0.42429355 4284769636
1.0072714 -1.0010964 0.42393044 4284900966
1.2300277 -1.0231746 0.42388129 4289572269
1.2553494 -1.0405664 0.42584434 4290953922
-1.2087814 -0.98994333 0.42515588 4286414205
-1.1752449 -0.97155088 0.42512506 4284573281
-1.1241001 -0.966066 0.42507273 4284835173
-1.0721916 -0.96710771 0.42551821 4285558896
-1.0275853 -0.97579038 0.42500064 4286874756
-0.99421185 -0.989052 0.42487651 4288190616
-0.1083737 -0.98770112 0.4250187 4284900966
-0.07689172 -0.97102082 0.4251377 4284769380
-0.02682187 -0.96005225 0.42569429 4284703587
0.025337486 -0.95784891 0.42427054 4284966759
0.076444112 -0.97166848 0.42404881 4286808963
0.11100786 -0.99227333 0.42410344 4288519581
0.98422378 -0.97715843 0.42466679 4283065674
1.0244807 -0.9740324 0.42466503 4284835173
1.071406 -0.96201712 0.42480731 4284900966
1.1267214 -0.95995736 0.42498019 4284966759
1.1741498 -0.97215408 0.42533848 4286611584
1.2103152 -0.99099261 0.42354152 4287861651
-1.1222103 -0.94867033 0.42610276 4284900966
-1.0778061 -0.9457981 0.42384806 4283453520
-1.0216994 -0.92770487 0.42716086 4282006074
-0.98882371 -0.92712069 0.42807522 4281019179
-0.063724682 -0.94305885 0.42501521 4284900966
-0.025652733 -0.93935287 0.42490169 4283256141
0.021899637 -0.93985671 0.42536888 4282664004
0.99005902 -0.9418844 0.42179173 4278216192
1.0265257 -0.9357875 0.423287 4281814327
1.0749102 -0.93548995 0.42497987 4283387727
1.1207834 -0.93959934 0.42464411 4282466625
1.1500131 -0.93456078 0.4157421 4278848010
-1.0658982 -0.85621613 0.42513329 4279176975
-1.0228429 -0.88329071 0.42548275 4279111182
-1.1087463 -0.84529716 0.42633528 4279176975
-1.0821365 -0.84999323 0.44641024 4279176975
-1.1150877 -0.15104137 0.42514619 4285229931
-1.078529 -0.15360263 0.42178884 4284637794
-1.0416632 -0.15136614 0.41304231 4287598479
-0.066932932 -0.1696102 0.42653036 4279505940
-0.021351868 -0.16987897 0.42323878 4282269246
0.020293545 -0.16472268 0.42242834 4285427310
0.057971161 -0.15791784 0.42214733 4287927444
1.0311114 -0.1590057 0.42492673 4283519314
1.0762657 -0.16730431 0.42454711 4278477572
-1.2052456 -0.10819662 0.4111236 4284900966
-1.1751297 -0.13136892 0.41973385 4282598211
-1.133846 -0.14754446 0.42051318 4283716692
-1.0644776 -0.14247525 0.42364475 4287203721
-1.0232307 -0.12817705 0.42415792 4288519581
-0.98427564 -0.10578726 0.4219068 4287006342
-0.10896809 -0.10951038 0.42277598 4281874488
-0.076393142 -0.12266178 0.42412546 4284835173
-0.027064936 -0.14057411 0.42381445 4285032552
0.029045407 -0.14481369 0.4239206 4287203721
0.077914834 -0.12916103 0.42330676 4289177511
0.11877947 -0.10860302 0.42377618 4290230199
0.98485613 -0.11777409 0.42507744 4282269246
1.0199617 -0.12521751 0.42540109 4284045657
1.071048 -0.13815676 0.42403108 4285033064
1.1289506 -0.14293317 0.4236666 4287072391
1.1780521 -0.12240543 0.42386392 4289243304
1.206455 -0.10173316 0.42312908 4290493371
-1.2208562 -0.079725839 0.41752803 4281874488
-0.97157335 -0.077624984 0.42423835 4290690750
-0.94085836 -0.067639828 0.42556706 4284835173
-0.12790911 -0.078006737 0.4238081 4284506208
0.03386198 -0.086984791 0.41617197 4290493371
0.078707829 -0.075791746 0.4112789 4290888129
0.12950686 -0.076477058 0.42355865 4290098613
0.16315483 -0.071894571 0.42381904 4278913803
0.94247484 -0.068784639 0.42631966 4278848010
0.97747439 -0.076287277 0.42473605 4284374622
1.0060633 -0.092413366 0.42511183 4284900966
1.2198452 -0.082119338 0.42321521 4290230199
-1.2507658 -0.014968604 0.42036152 4279440149
-1.2459394 -0.040416777 0.41674483 4279440147
-1.0313584 -0.036388308 0.42483881 4291414473
-0.96670675 -0.022575097 0.42570993 4291348680
-0.94336033 -0.026449695 0.42311347 4291348680
-0.15629208 -0.017300535 0.42362818 4284572001
-0.14487398 -0.030907506 0.42420045 4284637794
0.14160486 -0.025713073 0.42315862 4291282887
0.16136464 -0.02613892 0.42451209 4284769380
0.94365954 -0.023176245 0.42504862 4283455312
0.96877593 -0.028138841 0.42441139 4284835173
1.2525239 -0.0032203197 0.40758428 4291414473
-1.2554767 0.025899362 0.42564362 4278307841
-1.2426455 0.029512255 0.42579681 4282157628
-0.95718998 0.026274223 0.42386144 4290888129
-0.94672996 0.023906218 0.4242506 4289769648
-0.1527469 0.024417911 0.42408302 4284637794
-0.14630051 0.02607003 0.4232116 4284900966
0.14120044 0.027612831 0.42390677 4290822592
0.15698507 0.021401526 0.4228701 4291019715
0.94614565 0.021977397 0.42443591 4283917143
0.9629032 0.0265256 0.42464602 4284835429
1.248692 0.036249161 0.40013364 4290888129
1.2513478 0.019360185 0.40571445 4291151301
-1.2237076 0.079187781 0.42415753 4281174316
-1.01434 0.088752508 0.42320266 4289901234
-0.97595733 0.074410282 0.42498854 4289243304
-0.93229926 0.074152626 0.42402548 4288651167
-0.1526868 0.089530692 0.42511421 4284900966
-0.12974085 0.078317277 0.42417526 4284835429
0.12924403 0.074083775 0.42353871 4289440683
0.15394732 0.050947119 0.42198604 4290756543
0.92057884 0.092002839 0.4260976 4278848010
0.97554994 0.074591167 0.42495745 4284835173
1.0098537 0.091611706 0.42701921 4284900966
1.2241806 0.086295746 0.42081928 4286940549
-1.2088482 0.11308811 0.42044455 4281156141
-1.1770078 0.13068715 0.42155716 4283199308
-1.1270142 0.14252515 0.42283541 4284637794
-1.0737453 0.14283098 0.42198548 4285098345
-1.0225596 0.12430101 0.42423034 4287137928
-0.99360925 0.10467303 0.42132255 4287795858
-0.92921805 0.11856666 0.42462954 4289901234
-0.12402591 0.11672174 0.42423823 4282729797
-0.075082757 0.12472978 0.4238258 4284111450
-0.02748628 0.13664621 0.42366064 4284900966
0.024925711 0.14058472 0.42403477 4285032552
0.073143914 0.13031578 0.4234108 4286282619
0.10661192 0.10673345 0.42376831 4288059030
0.93057817 0.11455739 0.42116049 4278848010
0.99172139 0.10584382 0.42469794 4284900966
1.023469 0.12363458 0.42355013 4284900966
1.0686213 0.13362569 0.42332259 4284900710
1.1276282 0.14103535 0.42180207 4284967270
1.1735168 0.13269618 0.4222526 4283321934
1.2155906 0.11471298 0.42244399 4284900966
-1.1503762 0.15201913 0.42416865 4284900966
-1.122985 0.1550339 0.42539409 4284900966
-1.0946976 0.15424542 0.42391479 4284900966
-0.10591841 0.15688756 0.42472976 4278848010
-0.086083911 0.17059931 0.42388883 4278848010
-0.011197793 0.15171812 0.4228031 4284900966
0.017372156 0.15142372 0.4234733 4284900966
1.0850612 0.15119602 0.42324671 4285295724
1.1248852 0.1522809 0.42325059 4287401611
-0.015342856 0.89653385 0.42445311 4278848010
1.0390198 0.87782747 0.42397228 4278848010
-1.1192696 0.94738418 0.42469457 4285032552
-1.0787925 0.94835055 0.42609435 4286348412
-0.10493745 0.94159585 0.42511797 4278848010
-0.071003154 0.92958885 0.42498472 4280032796
-0.025446538 0.93587637 0.4246932 4283321934
0.019334748 0.94496578 0.42455196 4287072135
1.0184804 0.94022489 0.424732 4278848010
1.0744475 0.94224632 0.42437932 4284177243
1.1233773 0.94008249 0.42384765 4287795858
1.174742 0.93276823 0.42080793 4286029175
1.2232391 0.94303352 0.42560178 4278216192
-1.2075922 0.99367321 0.42402607 4283920215
-1.174612 0.96952045 0.42505473 4283330639
-1.1293212 0.95565194 0.42538092 4286151033
-1.0700995 0.9589904 0.42473742 4287203721
-1.0271726 0.97489524 0.42561108 4288519837
-0.98658615 0.9885534 0.4236595 4285295724
-0.11015335 0.97991872 0.42506188 4282869318
-0.078278162 0.97007668 0.42489552 4283915351
-0.028244469 0.95552212 0.4263714 4285164138
0.023755867 0.95316297 0.42644751 4287203721
0.079159565 0.97117954 0.42543355 4288651167
0.11030304 0.98895276 0.42587951 4285493103
0.99204516 0.992818 0.42410007 4284769380
1.0278118 0.97796899 0.42433473 4284835173
1.0712576 0.96311808 0.42283103 4285164138
1.1292115 0.95696056 0.42376482 4287401100
1.1777003 0.97047436 0.42265812 4289374890
1.2163284 0.98880374 0.42187417 4288327066
1.2678655 0.97628516 0.42676798 4278216192
-1.2298017 1.0249872 0.42594287 4282808390
-1.0057728 1.0088791 0.4246127 4287993237
-0.97402734 1.0238872 0.42463773 4290559164
-0.94766194 1.043218 0.42396361 4291282887
-0.12264581 1.0256057 0.42423791 4284506208
-0.079114974 1.0164667 0.42667475 4284900966
-0.026766071 1.006575 0.42711109 4284900966
0.12647189 1.0241858 0.42521599 4291019715
0.16960245 1.0312415 0.426521 4281348144
0.20115884 1.0498188 0.42243433 4278848010
0.97384369 1.0227017 0.42327076 4284703587
1.0179054 1.0235827 0.42459488 4284900966
1.054248 1.0310401 0.43067539 4284900966
1.1005971 1.0319102 0.42165399 4284900966
1.2276322 1.0201088 0.42281881 4290560188
1.2574164 1.033336 0.42177147 4285098345
-1.2507658 1.0909405 0.42608482 4284900966
-1.2475865 1.069029 0.42426753 4284050521
-0.96183401 1.0716654 0.42462769 4291348680
-0.94540131 1.075617 0.42463848 4291414473
-0.15144327 1.0906911 0.42588964 4282006074
-0.14072213 1.0685706 0.42501315 4284637794
0.13846463 1.070047 0.42370093 4290032820
0.16234924 1.0760896 0.42472115 4288453788
0.21039577 1.0911114 0.42714062 4278848010
0.94841504 1.0844986 0.42532799 4284835174
0.96287203 1.0706981 0.42463425 4284835173
1.0123324 1.0657574 0.42344943 4284900966
1.2433647 1.0713166 0.42444944 4291414473
1.2640381 1.0707904 0.42063773 4281940281
-1.2510654 1.108323 0.42593598 4284900966
-1.248028 1.1326135 0.425861 4284900966
-0.96428645 1.1274431 0.42448339 4290427578
-0.94800782 1.1152607 0.42362759 4291151301
-0.15156882 1.1084361 0.42413142 4282861383
-0.1445417 1.129195 0.42466536 4284440415
0.13867688 1.124355 0.42423835 4290493371
0.15941352 1.1192094 0.42069805 4285493103
0.21253362 1.1236355 0.42319515 4278760456
0.94107056 1.1252267 0.42405999 4284704355
0.9523688 1.1309303 0.4263756 4284900966
1.0144947 1.1102093 0.42801887 4284900966
1.2457287 1.1157396 0.42506474 4291282887
1.2577043 1.1122504 0.42244652 4278848010
-1.2342162 1.1701502 0.42389295 4284900966
-0.97262907 1.1765758 0.42391872 4289309097
-0.94258726 1.161045 0.42290902 4290427578
-0.17961374 1.1791663 0.4290674 4278216192
-0.12970692 1.1790756 0.42464462 4284900966
0.13030253 1.1732284 0.42075488 4287536526
0.22402969 1.1701701 0.42330107 4279013388
0.92637151 1.1781638 0.42202616 4278848010
0.96859878 1.17664 0.42504856 4284900966
-1.209473 1.2060124 0.41722521 4281874488
-1.1552849 1.2429435 0.42550135 4282137660
-1.12458 1.2419264 0.42532152 4284835173
-1.0714272 1.2382667 0.42534295 4285361517
-1.0227555 1.2284634 0.42406887 4286808963
-0.98610198 1.211663 0.42318711 4287795858
-0.16988641 1.2058735 0.42465186 4278216192
-0.12262105 1.219211 0.42196903 4282410560
-0.096989125 1.2191038 0.43169916 4284443487
-0.015055751 1.2462671 0.42600569 4284900966
0.025803579 1.2443621 0.42468953 4285032552
0.07491193 1.2263824 0.42123553 4286940549
0.10556047 1.2035118 0.42365637 4289243304
0.21962686 1.2202753 0.42301291 4279440147
0.93399268 1.226534 0.42333737 4278848010
0.9859094 1.2159071 0.41851589 4282992969
1.0197564 1.2290788 0.42499465 4284637794
-1.1180888 1.2600837 0.42501521 4282729797
-1.0729401 1.2643316 0.42261738 4281940281
-1.0311185 1.2592121 0.42342454 4282992969
0.19991487 1.2658683 0.40714425 4279440147
0.20016806 1.2655348 0.43309641 4279440147
0.94771391 1.2579287 0.42492247 4278848010
0.97376978 1.2878439 0.42751876 4282729797
1.0162616 1.2625386 0.41386902 4278848010
-1.1226996 -1.2506803 0.46741393 4280821800
-1.0829532 -1.2572211 0.47275838 4283387727
-1.0425514 -1.2623783 0.47797805 4279045389
0.029031247 -1.2607057 0.45870495 4279111182
0.058645725 -1.2523248 0.45670366 4286874756
1.0708395 -1.2568241 0.47314999 4283848278
1.1136404 -1.2602676 0.47348434 4278848010
-1.2073444 -1.200279 0.45620716 4284900966
-1.0611885 -1.2471329 0.46970561 4285953654
-1.0216557 -1.2269214 0.47241834 4288716960
-0.98399389 -1.2121729 0.46795008 4286151033
-0.94862163 -1.2020782 0.45539623 4278913803
-0.10420813 -1.2019306 0.47748914 4284900966
-0.071102284 -1.2259685 0.47444367 4282674499
0.080462612 -1.2357509 0.46127239 4289901234
0.10588298 -1.2126623 0.46911693 4291019715
0.98808974 -1.2119011 0.4700866 4283058762
1.0244612 -1.2270609 0.47306806 4284703587
1.0717038 -1.2392586 0.47406685 4285098345
1.1110845 -1.2408999 0.47218224 4285493103
-1.2273371 -1.1725912 0.45556611 4284900966
-0.97181457 -1.173683 0.47500917 4290954178
-0.9348346 -1.1754544 0.46827179 4283650899
-0.11990996 -1.1719718 0.47401768 4284900710
-0.079656154 -1.1922807 0.47173521 4284900966
0.13543183 -1.1700047 0.47334754 4291152069
0.94778478 -1.1603281 0.47144365 4283650899
0.97219324 -1.174422 0.47393644 4284178011
1.0179414 -1.1870668 0.47218692 4284900966
1.2433996 -1.1539048 0.47349897 4291414473
-1.2449764 -1.1195614 0.46937439 4284900966
-0.95597613 -1.1290748 0.47487608 4291348936
-0.94044936 -1.1182978 0.47699031 4289769649
-0.13795152 -1.1248009 0.4751274 4284900709
0.14809653 -1.133654 0.47251752 4291348423
0.15665968 -1.1215994 0.47486115 4288716960
0.94475055 -1.1204667 0.47451651 4284900966
0.96292627 -1.1237564 0.47554615 4284638562
1.2475439 -1.138849 0.47274733 4291480266
1.251981 -1.1142634 0.47344968 4289309097
-1.2593912 -1.0688694 0.4752256 4278372353
-1.2438027 -1.0746462 0.47329581 4284247387
-0.95721054 -1.0733262 0.47465256 4290690750
-0.94114655 -1.0777365 0.47504991 4291085764
-0.1423174 -1.0726446 0.47359794 4284769380
0.14789106 -1.0705235 0.47340098 4290493371
0.15963966 -1.0782132 0.47623557 4288190616
0.94352645 -1.0733621 0.47493383 4283065674
0.95896423 -1.0742594 0.47456527 4284573025
1.2475218 -1.0634511 0.47322208 4290756543
1.2557882 -1.0794472 0.47502217 4287466893
-1.2275274 -1.0211145 0.47470912 4283593810
-0.97432476 -1.0225147 0.4750796 4289309097
-0.94465256 -1.0425647 0.47485307 4290559164
-0.12607625 -1.0225792 0.47453815 4284177243
-0.085246779 -1.0120728 0.47717357 4284900966
0.1298115 -1.0198522 0.47491494 4289045925
0.15648656 -1.03626 0.47569698 4290756543
0.94699705 -1.0392852 0.47298598 4284966246
0.97179073 -1.0242846 0.47426414 4284769636
1.0056603 -1.006777 0.4718594 4284900966
1.2300513 -1.0224323 0.47469765 4289638062
1.2558304 -1.0414656 0.47628307 4290953922
-1.2092122 -0.98781806 0.47547635 4287006085
-1.1755176 -0.97121525 0.47442067 4284507489
-1.1266797 -0.9643209 0.47290143 4284835173
-1.0709823 -0.96234775 0.4728229 4285295724
-1.0255256 -0.97214866 0.47379202 4286677633
-0.99404842 -0.98890001 0.47506326 4288190616
-0.10885987 -0.98865539 0.47368309 4284900966
-0.076111071 -0.97168243 0.47434661 4284637794
-0.026770817 -0.95964485 0.47539318 4284703587
0.025431564 -0.95799464 0.47488645 4284835173
0.076558448 -0.97138369 0.47434387 4286743170
0.11112802 -0.99219376 0.47461906 4288453788
0.98388636 -0.97711134 0.47492617 4283065930
1.0240781 -0.97371912 0.47379732 4284835174
1.0713903 -0.96086764 0.4728263 4284835173
1.1272444 -0.95971316 0.47402367 4284966759
1.1742635 -0.97272152 0.47480983 4286611584
1.2098742 -0.99049628 0.47429934 4287993237
-1.1222255 -0.94832021 0.47588348 4284835429
-1.0769576 -0.94565529 0.47459319 4283519313
-1.0239073 -0.93010467 0.47305468 4282269246
-0.9892503 -0.92621523 0.47682652 4280821800
-0.06360767 -0.94297045 0.46978268 4284900966
-0.025367728 -0.93923688 0.47438133 4283256141
0.022998771 -0.93986702 0.47460121 4282861383
0.99034137 -0.94164073 0.47338921 4278216192
1.0270265 -0.93606979 0.47395304 4281879864
1.0754899 -0.93476081 0.47446144 4283124555
1.1232079 -0.93928421 0.47611651 4282071867
-1.0581347 -0.85924625 0.47558323 4279176975
-1.0215414 -0.88449961 0.4774043 4279111182
-1.1090965 -0.84524679 0.47517115 4279176975
