# .PCD v0.7 - Point Cloud Data file format
VERSION 0.7
FIELDS x y z rgb
SIZE 4 4 4 4
TYPE F F F U
COUNT 1 1 1 1
WIDTH 1105
HEIGHT 1
VIEWPOINT 0 0 0 1 0 0 0
POINTS 1105
DATA ascii
2.3153484 -1.0726484 0.72308034 4278848010
-2.3571248 -1.0080692 0.72468203 4279308561
-2.3380387 -1.0287956 0.72373724 4279111182
-2.2767613 -1.0302882 0.72490734 4279111182
2.3293869 -1.0305144 0.72450161 4278848010
2.3568864 -1.0124227 0.72387719 4278782217
-2.3724985 -0.97319049 0.72425717 4279111182
-2.3108485 -0.96221095 0.72374278 4279176975
-2.2938557 -0.99457067 0.72700566 4279176975
2.3412759 -0.98536825 0.72316992 4278848010
2.371243 -0.97373128 0.72293979 4278913803
-2.4095671 -0.91345459 0.72201174 4279176975
-2.3905358 -0.93458599 0.72569489 4279176975
-2.3327367 -0.92052346 0.72377819 4279176975
2.3842947 -0.9295792 0.72315407 4279834905
2.4105079 -0.91949648 0.72313875 4279242768
-2.4521732 -0.85328466 0.72735631 4279176975
-2.4286735 -0.87536359 0.72545409 4279176975
-2.3615446 -0.86565071 0.72720152 4279176975
-2.3489976 -0.889548 0.72674537 4279176975
2.391768 -0.88490516 0.7266705 4278848010
2.4266846 -0.87540007 0.72330397 4279176975
2.4541662 -0.86005276 0.72425824 4278848010
-2.4639986 -0.82028234 0.7228778 4279176975
-2.4435694 -0.83883768 0.7247014 4279176975
-2.3863525 -0.81840771 0.72293538 4279176975
2.4381497 -0.83071464 0.72379994 4278848010
2.4655919 -0.82267588 0.72439694 4279703319
-2.5034881 -0.75892812 0.72434878 4279242768
-2.4836209 -0.77728665 0.72388035 4279176975
-2.4089632 -0.77534223 0.72407991 4279242768
2.4438536 -0.7916671 0.72474074 4278848010
2.4789302 -0.77591544 0.72511542 4279111182
2.5093882 -0.76009446 0.72479504 4279111182
-2.5187664 -0.72181159 0.72373241 4279176975
-2.4978054 -0.73997074 0.72606444 4279242768
-2.4321916 -0.7310974 0.72684985 4279242768
2.4895573 -0.7339654 0.72491241 4278848010
2.5220926 -0.72261781 0.72480083 4279176975
-2.5583401 -0.66331202 0.72446293 4279242768
-2.5385597 -0.68024158 0.72421879 4279242768
-2.4614339 -0.67540646 0.72439986 4279242768
2.4969122 -0.69668728 0.722776 4278848010
2.5320873 -0.6781494 0.7236101 4279374354
2.5599971 -0.67081887 0.72523332 4278782217
-2.5748093 -0.62471342 0.725061 4279308561
-2.5458567 -0.64925152 0.72372079 4279242768
-2.4888299 -0.62322855 0.72439897 4279242768
2.5385141 -0.62917954 0.72483355 4281677109
2.5757444 -0.62478274 0.72505343 4278783497
2.6048615 -0.60675782 0.72430354 4278848010
-2.6105938 -0.56924379 0.72478813 4279242768
-2.5905344 -0.58454216 0.72506517 4279374354
-2.5132279 -0.57675612 0.72673613 4279242768
2.5419171 -0.57104635 0.72586954 4286485373
2.5828366 -0.57861477 0.72603709 4278783241
2.6124291 -0.57206625 0.72508365 4278657031
-2.6531975 -0.50824469 0.72494787 4279308561
-2.6296592 -0.52725291 0.72498751 4279440147
-2.5503187 -0.50611162 0.72803146 4279308561
-2.5356598 -0.53403407 0.72550499 4279308561
2.5454712 -0.52577746 0.72431451 4289901234
2.5864642 -0.52620912 0.72598141 4278598407
2.6208897 -0.52517134 0.72588652 4278531588
-2.6662521 -0.47071713 0.72523981 4279242768
-2.6438053 -0.48587218 0.72535998 4279308561
-2.5651238 -0.47791985 0.72346264 4279308561
2.5478079 -0.48652646 0.73030323 4286216826
2.5828302 -0.47092056 0.72497618 4279134478
2.61234 -0.48066139 0.72496283 4278543621
-2.706243 -0.4126986 0.72541189 4279308561
-2.685112 -0.42884129 0.72529364 4279308561
-2.6026514 -0.40644774 0.72265846 4279308561
-2.5868659 -0.43650857 0.72520757 4279308561
2.5394778 -0.41406396 0.72839284 4278341634
2.5699904 -0.42642698 0.7249347 4278478852
2.6138337 -0.42924201 0.72470641 4280313376
-2.7206726 -0.37312761 0.72446561 4279374354
-2.6937571 -0.39091253 0.72439307 4279308561
-2.6179011 -0.37739909 0.72522521 4279308561
2.4935553 -0.37053859 0.74075723 4278336259
2.5327313 -0.37269178 0.72352427 4278609158
2.5652573 -0.37803265 0.72573555 4278478084
2.6191931 -0.38005278 0.7242713 4284900966
-2.7602277 -0.317081 0.72495902 4279308561
-2.7390537 -0.33054963 0.725425 4279308561
-2.656569 -0.30375376 0.72442746 4279308561
-2.6417134 -0.33204886 0.7239368 4279308561
2.4868031 -0.31722495 0.72543705 4278281473
2.5197062 -0.32638761 0.72409624 4278215936
2.569386 -0.34092462 0.7256918 4282672707
-2.8021836 -0.25542063 0.72710526 4279308561
-2.775708 -0.27520853 0.72472632 4279308561
-2.7466054 -0.29679564 0.72212803 4279308561
-2.6715701 -0.27518275 0.72491646 4279308561
2.4384079 -0.2721417 0.7256512 4279722776
2.4794092 -0.27227575 0.7236172 4278216192
2.513387 -0.28381345 0.72454661 4278216192
-2.8137653 -0.22052184 0.72483903 4279308561
-2.7897472 -0.23403819 0.72485012 4279308561
-2.7041047 -0.21321817 0.72493023 4279374354
-2.6921093 -0.23606722 0.72295982 4279308561
2.4340582 -0.21897942 0.72306329 4278609158
2.4676509 -0.22762868 0.72443354 4278216192
2.5064297 -0.24985994 0.72309864 4278216192
-2.8575015 -0.15997912 0.72420859 4279374354
-2.830487 -0.17905566 0.72469914 4279374354
-2.7252426 -0.17295796 0.72610468 4279374354
2.3866341 -0.16538191 0.72470337 4278216192
2.427202 -0.17387739 0.72275782 4278216192
2.4618967 -0.18194467 0.72348803 4278216192
-2.8688536 -0.12086728 0.72496957 4279703319
-2.8434737 -0.13652958 0.72560096 4279374354
-2.7570395 -0.11239792 0.72611594 4279374354
-2.7446861 -0.13592915 0.72411168 4279374354
2.3840063 -0.11836365 0.72146231 4278412803
2.4149735 -0.12994279 0.72531086 4278937867
-2.9105239 -0.061799869 0.72543967 4279834905
-2.8838444 -0.081496105 0.72457945 4280821800
-2.7778194 -0.072827131 0.72193581 4279374354
2.3359404 -0.073723286 0.72227401 4278216192
2.3746111 -0.076356925 0.7243042 4279724055
2.4124198 -0.092315294 0.72458392 4278216192
-2.9196961 -0.025216874 0.72503465 4279374354
-2.8946688 -0.018411348 0.72329867 4279374354
-2.8072779 -0.016714448 0.72665578 4279374354
-2.7945881 -0.040886242 0.72462255 4279374354
2.3362837 -0.023167098 0.72379982 4278871562
2.3640084 -0.032625217 0.72479635 4278412804
-2.9162834 0.021623803 0.72517335 4279374354
-2.8830082 0.028149636 0.72452843 4279374354
-2.8294816 0.025574643 0.72714436 4279769112
2.3362887 0.02378061 0.72495711 4278412803
2.3693829 0.031099489 0.72307664 4278216192
-2.9192674 0.073828667 0.72593457 4279374354
-2.8764811 0.074316695 0.72528148 4280624421
-2.8434637 0.081643619 0.72564739 4281677109
2.3388882 0.065150917 0.72531801 4278477828
2.373033 0.075607955 0.72423732 4278281473
2.4140944 0.079401582 0.72493225 4278216192
-2.9107773 0.11849393 0.72259468 4279374354
-2.8669679 0.11975075 0.72431648 4281216558
-2.8310382 0.13177684 0.72476929 4279374354
2.3861148 0.11973486 0.72573525 4278543877
2.4204056 0.12317377 0.72420549 4278215936
2.4596922 0.14191593 0.72429842 4278216192
-2.9045765 0.18158162 0.72676975 4290822336
-2.8725109 0.17003064 0.72545391 4281019179
-2.8260331 0.17658544 0.72403276 4280492835
-2.7896307 0.18580663 0.71996194 4279440147
2.3924088 0.1604456 0.73509997 4278216193
2.4244199 0.17355771 0.72687626 4278281473
2.4741089 0.17788202 0.72713566 4278216192
-2.874078 0.21722552 0.72456813 4287532686
-2.8159559 0.21930017 0.72473532 4279374354
-2.7838328 0.23231269 0.72212434 4279374354
2.4413123 0.21501027 0.72881281 4278281473
2.467144 0.22641012 0.72632802 4278347010
2.5132658 0.22860031 0.72526139 4278216192
2.6222432 0.20692515 0.70599067 4278216192
-2.8129065 0.26739961 0.72276431 4279440147
-2.7741709 0.27648816 0.72316855 4279374354
-2.739357 0.27593681 0.71393794 4279440147
2.4493971 0.26104164 0.73905218 4278215937
2.4811394 0.27227876 0.72680825 4278478084
2.5259769 0.27903727 0.72366816 4278216192
2.5554974 0.29692924 0.72426873 4278216192
2.653368 0.25478214 0.71226156 4278216192
-2.7685988 0.32188949 0.72524238 4280361249
-2.7327795 0.32931158 0.72124296 4279440147
2.4921217 0.3200306 0.74354517 4282018362
2.5214989 0.32749051 0.72605163 4278478340
2.5726683 0.32471597 0.72691435 4278216192
2.6857386 0.30455455 0.71878356 4278216192
-2.7566476 0.36412522 0.7226792 4286216826
-2.7214456 0.37622845 0.72503793 4279966491
-2.6894579 0.37949628 0.71361345 4279440147
2.5371456 0.37048885 0.72329038 4278740232
2.5718298 0.37314519 0.72399509 4278216192
2.6101279 0.388262 0.72502446 4278216192
-2.7091889 0.41324857 0.72465163 4279440147
-2.6816728 0.42873937 0.72332847 4279440147
-2.6473095 0.44095922 0.70323902 4279440147
2.5758462 0.42295799 0.72454476 4278279425
2.6047053 0.42701668 0.72342539 4278216192
-2.6689451 0.46941274 0.72546506 4279440147
-2.6455221 0.48387384 0.72154677 4279440147
2.583127 0.46904588 0.72505987 4278216192
2.6114893 0.48307917 0.72205436 4278213888
-2.6557953 0.51175869 0.72490805 4279440147
-2.6300759 0.526151 0.72539276 4279571733
2.5395784 0.53175801 0.72423428 4278608388
2.5799665 0.52458596 0.72566962 4278216192
2.6185019 0.52420843 0.72228777 4278402052
-2.6139793 0.56857914 0.72457582 4279571733
-2.5909746 0.58683324 0.7258628 4279637526
2.51845 0.57104492 0.72166085 4278848010
2.5831041 0.57873112 0.72540545 4278530821
2.614424 0.5707376 0.71894217 4278782474
-2.6007874 0.60637754 0.72292686 4279505940
-2.5753758 0.6260246 0.72475642 4279703319
-2.5388098 0.64086837 0.72315192 4280953386
2.4849975 0.63323504 0.72508281 4278848010
2.5234079 0.62349415 0.72380573 4278526469
2.5702848 0.62599313 0.72498327 4278784009
2.6133556 0.62887818 0.70799702 4278848010
-2.5575645 0.66795248 0.72440416 4279637526
-2.5336051 0.67881203 0.72477788 4279900698
2.4718339 0.68242258 0.72563392 4278848010
2.5337176 0.67786211 0.72520345 4278847754
2.5654414 0.66261238 0.71927953 4278848010
-2.5165129 0.72341025 0.72517788 4279440147
-2.4911294 0.72816193 0.72400904 4279505940
2.4356723 0.72493947 0.72642016 4278848010
2.4878044 0.73050565 0.72646052 4280953386
2.5164821 0.7243194 0.72368962 4279308561
2.5610046 0.71517503 0.70600563 4278848010
-2.5078154 0.76494414 0.72351229 4279505940
-2.477947 0.77644503 0.72467285 4279703319
-2.4485373 0.79018307 0.72137809 4279505940
2.3953245 0.79996341 0.72138166 4278848010
2.4257591 0.77942014 0.72371399 4278848010
2.4813981 0.77560908 0.72483796 4279440147
2.5308051 0.76496041 0.70190859 4278848010
-2.4633183 0.82031316 0.72153443 4279966491
-2.436502 0.82992256 0.72421759 4280756007
2.3793766 0.82960534 0.72672385 4278848010
2.4360104 0.83289164 0.72502565 4278848010
2.4657719 0.82093358 0.72468919 4278848010
-2.4510913 0.86199659 0.71130288 4279505940
-2.4208579 0.87369174 0.72342908 4279900698
-2.3949585 0.88708192 0.72673595 4279505940
2.3720703 0.87671191 0.72387964 4278848010
2.4261982 0.87268549 0.72467798 4278848010
2.4682136 0.88215774 0.73136669 4278848010
-2.4105239 0.91560209 0.72358388 4280032284
-2.3817079 0.93009633 0.72477531 4279637526
2.3838911 0.93305439 0.72419429 4278848010
2.417042 0.91816103 0.72623205 4278848010
-2.4078119 0.97453624 0.74105781 4279505940
-2.3680866 0.97305602 0.72420889 4279834905
-2.3426359 0.98485786 0.72533655 4279703319
2.3428028 0.97235918 0.72428924 4278848010
2.3683534 0.9738304 0.72401303 4278848010
2.4103253 0.97768551 0.72632283 4278848010
-2.3625696 1.0165244 0.72949576 4279440147
-2.3279357 1.026731 0.72507626 4279571733
2.3380411 1.0305347 0.7232753 4278848010
2.3671389 1.0162585 0.72343385 4278848010
-2.3530495 1.063109 0.72915208 4279505940
-2.3175235 1.0725787 0.72531849 4279440147
-2.289305 1.0828021 0.72452372 4279505940
2.2980666 1.096722 0.72410262 4278848010
2.3185112 1.0753936 0.72339934 4278848010
2.358094 1.0638787 0.7217719 4278848010
-2.315038 1.1252376 0.72536039 4279505940
-2.2750421 1.1265723 0.72565824 4279637526
-2.2492213 1.1420333 0.72484499 4279505940
2.2845187 1.1270982 0.7230922 4279242768
2.3141153 1.1182555 0.72045529 4278848010
-2.2709973 1.1716424 0.7254135 4279505940
-2.2344425 1.1803547 0.72518069 4279505940
2.2445748 1.1881448 0.72414041 4278782217
2.2672431 1.1723419 0.72502595 4278913803
-2.2607107 1.2178769 0.72414476 4279505940
-2.221303 1.2261821 0.7245568 4279505940
-2.1960666 1.236928 0.72389948 4279505940
2.227052 1.2260618 0.72540414 4278913803
2.2583327 1.2204701 0.72818357 4278848010
-2.2174482 1.2697483 0.72588265 4279637526
-2.1835008 1.2776048 0.72434372 4279505940
2.189923 1.2853118 0.72599173 4279242768
2.2144773 1.2685562 0.72481424 4280229663
-2.206979 1.3090067 0.72713709 4279571733
-2.1702151 1.3247703 0.72458112 4279505940
-2.1418023 1.3378193 0.72122902 4279571733
2.1723223 1.3250562 0.72488743 4280098077
2.206038 1.3147782 0.72542459 4278848010
-2.1639149 1.3730841 0.72321975 4279505940
-2.1304286 1.3776475 0.7229507 4279505940
2.0966437 1.3986089 0.72754681 4278848010
2.1297131 1.3753666 0.72608691 4279242768
2.1638477 1.3678609 0.72344673 4280427042
-2.1185834 1.4214555 0.72374082 4279505940
-2.0912905 1.4329848 0.72224128 4279571733
2.0888538 1.4317915 0.72370881 4278848010
2.1168928 1.4240696 0.72591025 4278848010
2.152406 1.4032825 0.72061652 4278848010
-2.113061 1.4661078 0.72359759 4279571733
-2.0771747 1.4767612 0.72265184 4279505940
2.045805 1.4824754 0.72166556 4278848010
2.0791137 1.4716014 0.72551453 4278848010
2.1121185 1.4697587 0.72176307 4278848010
-2.0664458 1.5200566 0.72178519 4279505940
-2.0386887 1.5303172 0.72272497 4279505940
2.0349352 1.5306746 0.72457993 4278782217
2.0638359 1.5204252 0.72804552 4278782217
-2.0548782 1.5662191 0.72501665 4279571733
-2.0240355 1.5745331 0.7233758 4279834905
-1.9972428 1.5901669 0.72225803 4279571733
1.9868369 1.5797393 0.72336036 4278848010
2.0237083 1.5739545 0.72543961 4278782217
2.0562778 1.5618916 0.72852182 4278848010
-2.0134301 1.6206851 0.72244102 4279637526
-1.9852448 1.6282737 0.7225365 4279505940
1.947342 1.6448835 0.72449547 4278848010
1.981618 1.6280774 0.72508848 4278848010
2.0112195 1.6177219 0.72505111 4278782217
-1.9708456 1.6717017 0.72274607 4279505940
-1.9447885 1.6870121 0.71889853 4279571733
1.9318613 1.6814946 0.72429478 4278848010
1.9700478 1.6730517 0.72302896 4281084972
-1.9625518 1.7145895 0.72609973 4279505940
-1.9316025 1.7282027 0.72393245 4279769112
1.8917934 1.736508 0.72609198 4278848010
1.9320763 1.7244531 0.7248016 4280163870
1.9628934 1.7159953 0.71991473 4285164138
-1.9159826 1.7738211 0.72392517 4279637526
-1.8948773 1.7820122 0.72648954 4282071867
1.8778129 1.7824395 0.72270298 4278848010
1.9169968 1.7719451 0.72584921 4281874488
-1.9070274 1.8166611 0.7206229 4279571733
-1.8813093 1.8270099 0.72574109 4279505940
1.8399507 1.822019 0.72758198 4278848010
1.8744016 1.8192207 0.72236711 4278848010
1.9051809 1.8174191 0.72344047 4283387727
-1.8628733 1.8687614 0.72552526 4279571733
-1.8435342 1.8873055 0.72500736 4279637526
1.839206 1.8837249 0.71963668 4278848010
1.863686 1.8669999 0.71953219 4278848010
-1.8540461 1.9057436 0.72442287 4279571733
-1.8267381 1.9263667 0.72514838 4280163870
1.8183645 1.9287487 0.7241261 4278848010
1.8593206 1.9178987 0.71356642 4278848010
-1.8105971 1.9639262 0.72608769 4280295456
-1.78242 1.9856117 0.72522253 4278989580
-1.7265384 1.9917186 0.72375637 4278280961
-1.6774298 1.9917307 0.72647393 4278215936
-1.6262459 1.9900793 0.72486252 4278216192
-1.5727328 1.9920785 0.72428077 4278216448
-1.5245056 1.9914498 0.72571623 4278283521
-1.475415 1.9921007 0.72542202 4278285057
-1.4266788 1.9924613 0.72469097 4278286337
-1.3993418 1.999072 0.70777732 4278419203
1.3946165 1.9939986 0.72216338 4278216192
1.4229323 1.9940197 0.72673285 4278216192
1.4755412 1.9895438 0.7246505 4278216192
1.52291 1.9840842 0.72443622 4278216192
1.5735881 1.9854941 0.72650027 4278216192
1.6262196 1.9853181 0.72568232 4278216192
1.6730076 1.986789 0.7245748 4278216192
1.7257401 1.986863 0.72523898 4278214144
1.7811421 1.9815223 0.72407728 4279773976
1.8211963 1.9708368 0.72192347 4281282351
1.8607613 1.9585816 0.72719073 4284900966
-1.7753565 2.0154691 0.7244643 4278798601
-1.7223594 2.0009747 0.72395825 4279505940
-1.6723962 2.001004 0.72395617 4279248656
-1.6240333 2.0098815 0.72390836 4278216960
-1.5740653 2.0059528 0.72405058 4278216448
-1.5217977 2.0109494 0.72464663 4278217728
-1.4734349 2.0057311 0.72475141 4278217728
-1.4203269 2.0096605 0.72351462 4279269904
-1.3819277 2.028949 0.72388971 4278813450
1.3806458 2.0237856 0.72431421 4278478339
1.4262449 2.0143185 0.72430891 4278215936
1.4728996 2.0042868 0.72609574 4278215936
1.5229601 2.0037584 0.7253055 4278215936
1.574459 2.0032198 0.72499311 4278215936
1.6254795 2.0037062 0.72559273 4278215936
1.6743417 2.0046115 0.72477812 4278216192
1.7255756 2.0041647 0.72476333 4278215936
1.7627085 2.0048459 0.72531593 4278341891
-1.3631938 2.0694175 0.72366482 4278420483
-1.341621 2.0856569 0.72522962 4278355970
1.3424038 2.0886521 0.72388887 4278215936
1.3645381 2.0666292 0.72538525 4278412547
1.4147825 2.0716157 0.72442418 4278216192
-1.351339 2.1063776 0.71583575 4278290689
-1.3269389 2.1250992 0.72266662 4278422787
1.3230485 2.1249549 0.72404993 4278215936
1.3715128 2.1290176 0.72372377 4278216192
1.4017975 2.1100655 0.72761053 4278216192
-1.3095541 2.1658108 0.72261047 4278751496
-1.2888989 2.1815631 0.7246756 4278818058
1.2883036 2.1822631 0.72412217 4278216192
1.3186328 2.1692936 0.72487813 4278215936
1.3630229 2.180738 0.72451073 4278216192
-1.270201 2.2230718 0.7234689 4278688007
-1.246038 2.2442873 0.72325522 4278361858
1.248744 2.2480149 0.72763067 4278216192
1.2685242 2.224061 0.72540426 4278215936
1.3289152 2.2204492 0.72453356 4278216192
-1.2573413 2.2623177 0.72310513 4278427395
-1.2352463 2.2773688 0.72433895 4279147022
1.2337303 2.277144 0.72413492 4278216192
1.2781901 2.2800512 0.72672486 4278216192
1.3149278 2.2683928 0.72646976 4278216192
-1.2151635 2.323525 0.72463644 4278429188
-1.1942116 2.3449399 0.72478801 4278430211
1.1968849 2.3404002 0.72473496 4278215936
1.2139989 2.322212 0.72533059 4278215936
1.2782271 2.3203199 0.72412169 4278216192
-1.2045367 2.3599801 0.72199273 4278430980
-1.1828328 2.3763573 0.72498012 4278430979
1.1782101 2.3746705 0.7251308 4278281473
1.2277472 2.3854051 0.72547162 4278216192
1.2588931 2.3705235 0.72449332 4278216448
-1.161008 2.4198487 0.72467941 4278694918
-1.1424475 2.4382856 0.72633761 4278433027
1.1418502 2.4372509 0.72636563 4278215936
1.1687176 2.4208643 0.72452945 4278215936
1.2273018 2.4281015 0.72406149 4278216192
-1.1511812 2.4541435 0.72445476 4278564868
-1.1263359 2.4759648 0.72542089 4278496772
1.1215607 2.4739881 0.72426093 4278215680
1.1690595 2.4790339 0.7272867 4278216192
1.205826 2.4672463 0.72125417 4278216192
-1.1095223 2.5122886 0.72468084 4278563332
-1.0778344 2.5304258 0.72526556 4279063053
-1.0234995 2.5327413 0.72427619 4279639062
-0.97457665 2.5324042 0.72487462 4279638806
-0.92514205 2.5365264 0.72483641 4279573781
-0.87533206 2.5361636 0.72513956 4279508244
-0.82523561 2.536283 0.72516149 4279374866
-0.77558035 2.5363255 0.72535247 4279374354
-0.72460723 2.536325 0.72480601 4279900698
-0.67407691 2.5379252 0.72082281 4279374354
-0.62475163 2.5390446 0.72256047 4279308561
-0.5737986 2.5394258 0.72354072 4279308561
-0.52606034 2.5395002 0.72398216 4279637526
-0.47601131 2.5398149 0.72355247 4279242768
-0.42417777 2.5394056 0.72353834 4279242768
-0.37554827 2.5390794 0.7230683 4279176975
-0.32477924 2.5394096 0.72485089 4279176975
-0.27436206 2.5397644 0.72445351 4279242768
-0.22607245 2.5398297 0.72503042 4279111182
-0.17499992 2.5401659 0.72542948 4279111182
-0.12453829 2.5405145 0.72535026 4279045389
-0.07534758 2.5402207 0.72550803 4278979596
-0.025037723 2.5402002 0.72460258 4278979596
0.024900522 2.540441 0.72501069 4278913803
0.07489296 2.5400138 0.72439498 4278913803
0.12511876 2.5399895 0.72482771 4279242768
0.17448403 2.5394416 0.72523236 4279242768
0.22544648 2.5395479 0.72407538 4278979596
0.27378696 2.540256 0.72528279 4279308561
0.32358468 2.5396605 0.72442365 4280163870
0.37363973 2.5358672 0.72446197 4278848010
0.42538825 2.5364666 0.72468716 4278848010
0.47571191 2.5356555 0.7236684 4278782217
0.52866542 2.537179 0.72504532 4278848010
0.57747865 2.5371349 0.7256574 4278848010
0.62473035 2.5387256 0.72456592 4278848010
0.67634732 2.5379479 0.72462171 4278848010
0.72466266 2.5378811 0.72483617 4278848010
0.77503902 2.5366623 0.72448349 4278913803
0.82591707 2.5369503 0.72465879 4278782217
0.87540144 2.5363851 0.72502249 4279242768
0.92443675 2.5356865 0.72504455 4279176975
0.97448796 2.5354166 0.72514158 4279176975
1.023875 2.5353458 0.72460139 4278782217
1.076827 2.5310118 0.72438461 4278402564
1.1218715 2.5233479 0.72475308 4278216192
1.1639273 2.5116913 0.72481275 4278216192
-1.0814414 2.5539379 0.70222706 4279440147
-1.0007613 2.5714836 0.72604793 4279440147
-0.98990798 2.5881386 0.72623569 4279440147
-0.51319051 2.5514488 0.72483742 4279308561
-0.47651276 2.5512233 0.72874922 4279308561
-0.42559958 2.5509164 0.72560138 4279308561
-0.37523785 2.5506132 0.72248745 4279242768
-0.32198799 2.5530014 0.72380406 4279242768
-0.28257298 2.5581949 0.72594333 4279176975
-0.22558774 2.5613329 0.72472149 4279176975
0.53311241 2.5525901 0.72519034 4284900966
0.55860507 2.5522621 0.72507006 4284900966
1.0380648 2.5733299 0.72337407 4278848009
-0.96455538 2.6270437 0.72667414 4279440147
0.81814355 2.6011608 0.72594696 4278848010
0.87348139 2.6023822 0.72349811 4278848010
0.92647809 2.6035497 0.72613055 4278848010
0.97310275 2.6045773 0.72502971 4278848010
1.0104349 2.6046987 0.72257298 4278848010
-0.92698443 2.671423 0.72604513 4279440147
-0.87120759 2.6745222 0.72549903 4279440147
-0.81997329 2.6717875 0.72486991 4279374354
-0.76993227 2.6691153 0.7263236 4279374354
-0.72102326 2.6665058 0.72361994 4279374354
-0.68109334 2.6643741 0.72412997 4279374354
-1.0164875 -2.5598257 0.77041173 4278848010
-0.96916175 -2.5594263 0.77282202 4278848010
-0.92228776 -2.5590262 0.7809028 4278848010
-0.87590736 -2.5586381 0.77760202 4278848010
-0.82084394 -2.5581779 0.77368331 4278848010
-0.77544427 -2.5577981 0.77045244 4278848010
-0.73053122 -2.5574193 0.77280068 4278848010
-0.67720699 -2.5569658 0.78002959 4278848010
-0.62449461 -2.5565248 0.77618104 4278848010
-0.57239717 -2.5560892 0.77237743 4278848010
-0.51920372 -2.5556419 0.77174318 4278848010
-0.47003216 -2.5552223 0.78108907 4278848010
-0.41971695 -2.5548012 0.77732277 4278848010
-0.3699753 -2.5543854 0.77359939 4278848010
-0.32079709 -2.5539744 0.76991826 4278848010
-0.27365863 -2.5535734 0.77645403 4278848010
-0.22412869 -2.5531552 0.77841324 4278848010
-0.17658633 -2.5527582 0.77476692 4278848010
-0.13735847 -2.5524299 0.77175826 4278848010
-1.1076605 -2.5118353 0.77279478 4278439170
-1.0779837 -2.5322256 0.7742669 4279070989
-1.0249594 -2.5400202 0.77446961 4279573781
-0.9751386 -2.5399032 0.77521855 4279246096
-0.92339182 -2.5397627 0.77510709 4278782985
-0.87540334 -2.5399528 0.77516764 4278848010
-0.82577848 -2.5400252 0.77495688 4278848010
-0.77542007 -2.5388639 0.77489328 4278913803
-0.72581768 -2.5387375 0.77523303 4278848010
-0.67512953 -2.5388782 0.77466846 4278848010
-0.62481678 -2.5390794 0.77519232 4278979596
-0.57531464 -2.5386851 0.77469146 4278782217
-0.52505475 -2.5390508 0.77489382 4279111182
-0.47514886 -2.5397022 0.77433425 4279242768
-0.42435113 -2.5394766 0.77485633 4278979596
-0.37446985 -2.5389297 0.7743898 4278782217
-0.32497498 -2.5389817 0.77465004 4278848010
-0.27461314 -2.5387352 0.77440059 4278913803
-0.22502811 -2.5386922 0.77489108 4278848010
-0.17290032 -2.5371711 0.77412897 4278782217
-0.12628838 -2.5373092 0.77404219 4278848010
-0.075342305 -2.5385404 0.77457893 4278848010
-0.025828972 -2.5383267 0.77507871 4278848010
0.024700223 -2.5384951 0.77493453 4278848010
0.07537996 -2.5384872 0.77486688 4278848010
0.12489752 -2.5384781 0.7749601 4278848010
0.17517252 -2.5387096 0.77535361 4278848010
0.22458252 -2.5387866 0.77527016 4278848010
0.27555686 -2.5391262 0.7753374 4278848010
0.32478818 -2.5393674 0.77495909 4278848010
0.37477723 -2.5398443 0.77512842 4278848010
0.42551604 -2.5397201 0.77514726 4278848010
0.47512135 -2.539876 0.77500463 4278848010
0.52513945 -2.540024 0.77477998 4278979596
0.57463956 -2.5401926 0.77488434 4278848010
0.62410814 -2.5404167 0.77438492 4278848010
0.67544907 -2.5404911 0.77454203 4278848010
0.72597581 -2.5407226 0.7747249 4278848010
0.77485985 -2.5403767 0.77478325 4278848010
0.82520628 -2.5402927 0.77517229 4278848010
0.87479156 -2.540575 0.77493942 4278782217
0.92474854 -2.5407414 0.77479416 4278848010
0.97477293 -2.5407712 0.77570069 4278782217
1.024843 -2.5403016 0.77547646 4278782729
1.0770051 -2.537755 0.77532363 4278592774
1.1103925 -2.51933 0.77588946 4278215936
-1.1251049 -2.4780037 0.77429801 4278373634
-1.0998467 -2.4972916 0.77234733 4278242305
1.0927778 -2.4863839 0.7748087 4278736391
1.1306123 -2.4723225 0.77465779 4278215936
1.1612303 -2.4681253 0.77920824 4278216192
-1.1629199 -2.4195943 0.77495205 4278373378
-1.141524 -2.4376779 0.77483702 4278438403
1.1401415 -2.4327636 0.77383882 4278215936
1.1666912 -2.418514 0.7746045 4278347010
-1.2059368 -2.3660548 0.77127284 4278438146
-1.1780334 -2.37661 0.77635813 4278438403
1.1477833 -2.3924119 0.78044111 4278216192
1.1819515 -2.3755481 0.77496827 4278281473
1.2136745 -2.3640919 0.77737153 4279658005
-1.2170374 -2.3215177 0.77619725 4278503684
-1.1963696 -2.3378272 0.78037125 4278633990
1.1941657 -2.3324418 0.77388722 4278216192
1.2196478 -2.3247125 0.77446699 4278871306
1.2546507 -2.3011942 0.77582932 4280837672
-1.2583891 -2.2661152 0.77302688 4278437379
-1.2352755 -2.2793124 0.77552933 4278502916
-1.1778977 -2.2719731 0.77923495 4278307841
1.2341205 -2.2795272 0.77512068 4278216192
1.2626504 -2.2640073 0.77424246 4279985691
-1.2723145 -2.2233739 0.77520001 4278960652
-1.2259629 -2.2294619 0.77479166 4278503427
-1.191767 -2.2487748 0.77587593 4278307841
1.2414179 -2.2324612 0.77809614 4278216192
1.2752982 -2.2259741 0.77442122 4278674695
1.300433 -2.2177389 0.77874357 4284900966
-1.3114004 -2.170644 0.77379113 4278960139
-1.2910371 -2.1773174 0.77484304 4280073756
-1.2392255 -2.1693785 0.77741766 4278373120
1.2870085 -2.1834633 0.77462631 4278215936
1.3161234 -2.1669102 0.7750867 4278478084
-1.354295 -2.1065979 0.77461588 4278434563
-1.3256822 -2.1260195 0.77498293 4278435075
-1.264666 -2.1268227 0.77388942 4278307074
1.2974148 -2.1368065 0.7748062 4278216192
1.3266045 -2.1256735 0.77451563 4278281729
1.3615663 -2.1142945 0.77302408 4278216192
-1.3651779 -2.0671611 0.77492291 4278433795
-1.3393161 -2.0823197 0.77366668 4278434307
-1.2914672 -2.0819829 0.77728516 4278437635
1.3379084 -2.0856166 0.77471387 4278216192
1.3647704 -2.0714984 0.77320087 4278216192
-1.7631817 -2.0048513 0.77485138 4278864137
-1.7243836 -2.0102839 0.77492529 4278476293
-1.673701 -2.0088603 0.77448547 4278481412
-1.6260772 -2.0088465 0.77385485 4278484997
-1.5755303 -2.0098066 0.77659857 4278424067
-1.5257703 -2.0079169 0.77545547 4279408914
-1.4779155 -2.0056236 0.7751357 4279213839
-1.420989 -2.006454 0.77523452 4278431235
-1.3801488 -2.0246565 0.77475506 4278498819
-1.3335526 -2.0162573 0.77668661 4278371075
1.3801893 -2.0261357 0.77275282 4278478340
1.4246488 -2.0104723 0.77277952 4278806025
1.4751092 -2.0065453 0.77330291 4278216192
1.5259497 -2.0069928 0.77399647 4278216192
1.5774225 -2.0072515 0.7752381 4278216192
1.6270428 -2.0068216 0.77443206 4278216192
1.6776127 -2.0085831 0.77246618 4278216192
1.7278479 -2.0087738 0.77328891 4278343682
1.769159 -2.0037756 0.7738474 4278533125
1.800432 -2.0001206 0.76068288 4278782730
-1.8096703 -1.9619846 0.77639312 4279834649
-1.783443 -1.981334 0.77384317 4279640342
-1.7327306 -1.9896111 0.77475917 4278482436
-1.6742246 -1.9995286 0.77872127 4278486276
-1.6244649 -1.9998273 0.77818239 4278489860
-1.4690565 -1.9963886 0.7736268 4285774451
-1.4269789 -1.996547 0.7743383 4278497796
-1.3894358 -1.9971755 0.7560029 4278498563
1.3989481 -1.9977436 0.775563 4278216192
1.4253365 -1.9977378 0.77462661 4278478596
1.4743543 -1.9979144 0.77486682 4278216192
1.5221335 -1.9857684 0.773642 4278216192
1.5741212 -1.988234 0.77123517 4278281473
1.6268106 -1.992204 0.7723822 4278216192
1.6768913 -1.99104 0.77313709 4278216192
1.7277391 -1.9895567 0.77486962 4278277889
1.7814387 -1.9825969 0.77524376 4278594053
1.8096689 -1.9619122 0.77290332 4278720008
-1.8501021 -1.9050107 0.77002072 4278913803
-1.8199319 -1.9244487 0.77491093 4279045389
-1.7754837 -1.9326507 0.77274328 4278603782
1.5897682 -1.9497427 0.77822357 4278216192
1.6202558 -1.9492886 0.77109069 4278281728
1.6671062 -1.9485891 0.77298069 4278793481
1.7290498 -1.9476643 0.7745856 4284900966
1.7809981 -1.9468892 0.77322882 4284900966
1.8250256 -1.9267977 0.77443922 4278849802
1.8580444 -1.9045807 0.77009511 4283650899
-1.8649755 -1.8629571 0.77654064 4278913803
-1.8356165 -1.8768533 0.77666801 4278848266
-1.7930743 -1.8850598 0.77579081 4278216192
1.844758 -1.8862 0.77675414 4278782217
1.8634411 -1.8666192 0.77506697 4279900698
-1.9030986 -1.8106208 0.7741878 4278913803
-1.8784299 -1.8260381 0.77460718 4278913803
-1.8289961 -1.8249658 0.77476007 4278913803
1.8837478 -1.8268631 0.77446926 4279571733
1.9007277 -1.8029449 0.75087726 4278848010
-1.9151102 -1.7705268 0.77583832 4279769112
-1.8845103 -1.7809511 0.77323329 4278913803
-1.8491054 -1.7913252 0.77361858 4278913803
1.897245 -1.7944926 0.77706993 4278848010
1.9136225 -1.7727481 0.77296114 4278782217
-1.9561582 -1.7126532 0.77496582 4278979596
-1.93208 -1.7303602 0.77380055 4279505940
-1.8882928 -1.7257656 0.775388 4278913803
1.9370383 -1.7282321 0.77321279 4278848010
1.9525827 -1.7068475 0.77216262 4278782217
-1.9704701 -1.6731626 0.77517164 4278979596
-1.9315246 -1.6834048 0.77435398 4278913803
1.9699247 -1.6724125 0.77151251 4278782217
-2.009001 -1.6189373 0.7740792 4278979596
-1.9813565 -1.6258678 0.7755422 4278979596
-1.9402412 -1.6388607 0.77330256 4278979596
1.9902292 -1.6337023 0.77209705 4278848010
2.0060902 -1.6118478 0.7744109 4278848010
-2.0524554 -1.5550984 0.77972811 4278979596
-2.0263038 -1.5747629 0.77494764 4278979596
-1.9847373 -1.5742376 0.77418303 4278979596
1.99388 -1.5998445 0.77437186 4288256409
2.0220237 -1.5742836 0.77329248 4279308561
-2.0638435 -1.5196466 0.77535349 4278979596
-2.0361099 -1.5306841 0.77311057 4278979596
-1.9988431 -1.5408279 0.76886386 4278979596
2.0408149 -1.5328839 0.77373987 4278848010
2.0607159 -1.5155993 0.77272344 4278848010
-2.1066811 -1.458969 0.77521271 4279045389
-2.0790317 -1.4769465 0.77395827 4279045389
-2.0334711 -1.4829012 0.76494098 4278979596
2.0777006 -1.4755116 0.77398217 4278848010
2.102617 -1.4579026 0.76807523 4278848010
-2.1161981 -1.4207776 0.77433228 4279045389
-2.0866473 -1.4358917 0.77253032 4279045389
2.0944722 -1.4372331 0.77605188 4278848010
2.1128705 -1.4201151 0.77488559 4278782217
-2.1568007 -1.3658947 0.77187455 4279045389
-2.1340272 -1.3779976 0.77312165 4279045389
-2.0896628 -1.3889034 0.75752687 4279045389
2.1321988 -1.3767339 0.77427542 4278848010
2.1516037 -1.3646121 0.77430987 4278848010
-2.1710582 -1.3258895 0.7733435 4279045389
-2.1400278 -1.3427744 0.76812494 4279045389
2.1424348 -1.338547 0.77489716 4278848010
2.1657197 -1.3206028 0.77427673 4279176975
-2.2113411 -1.2668022 0.77387339 4279045389
-2.1878998 -1.2822176 0.77488863 4279111182
2.1858881 -1.2775347 0.77424532 4278848010
2.206322 -1.2581432 0.7734459 4278848010
-2.2244465 -1.2252008 0.77500582 4279111182
2.1962717 -1.2347946 0.77744454 4278848010
2.2209523 -1.2210336 0.77451044 4278782217
-2.2599559 -1.1697768 0.77409226 4279111182
-2.2322876 -1.1799567 0.77605861 4279111182
-2.1991251 -1.174922 0.77593374 4279111182
2.237576 -1.1828483 0.77498239 4278782217
2.2577159 -1.1644949 0.7727201 4278848010
-2.3041682 -1.1061628 0.77816796 4279176975
-2.2829013 -1.1255951 0.77394778 4279111182
-2.2261977 -1.1233617 0.77508843 4279111182
2.2447903 -1.1479417 0.77603519 4278848010
2.2745259 -1.1237049 0.77367449 4278848010
-2.3150504 -1.0722442 0.77463877 4279111182
-2.2713597 -1.0768828 0.77473646 4279111182
-2.2444806 -1.0885438 0.7723729 4279111182
2.2912679 -1.0815722 0.77432323 4278848010
2.3120449 -1.0667214 0.77456015 4278848010
-2.3571608 -1.0078377 0.77494514 4279374354
-2.3373735 -1.0290769 0.77574712 4279111182
-2.274837 -1.03072 0.77721578 4279176975
2.3280342 -1.0279596 0.77251256 4278848010
2.3529801 -1.0069194 0.76932144 4278848010
-2.3726377 -0.97309458 0.77481693 4279176975
-2.3102214 -0.96333408 0.77249402 4279176975
-2.2947729 -0.99275821 0.77223819 4279176975
2.3414371 -0.98529667 0.77221465 4278848010
2.3657537 -0.97014052 0.77317393 4279308561
-2.4076784 -0.91394901 0.77561814 4279176975
-2.3907354 -0.93460089 0.77566129 4279176975
-2.3327472 -0.92042559 0.7769686 4279176975
2.3828366 -0.92876947 0.77538735 4279834905
2.404881 -0.91218036 0.77518028 4280558628
-2.4527237 -0.85296947 0.78079778 4279176975
-2.4272866 -0.8757264 0.77471143 4279176975
-2.3628106 -0.86317188 0.77354383 4279176975
-2.3490055 -0.88946515 0.77351779 4279176975
2.3914435 -0.88650972 0.77587676 4279374354
2.423398 -0.87355006 0.77431363 4279374354
-2.4626327 -0.82113886 0.77493066 4279176975
-2.4424577 -0.83959532 0.77456564 4279176975
-2.3854012 -0.82014549 0.77391946 4279176975
2.4377022 -0.83251721 0.77580571 4278848010
2.4603913 -0.8199082 0.774746 4280427042
-2.503027 -0.75754172 0.77330899 4279242768
-2.4831793 -0.77684981 0.77438337 4279176975
-2.4083478 -0.77643812 0.77652591 4279242768
2.4437919 -0.79169852 0.77717143 4278848010
2.4795647 -0.77498204 0.77556419 4279374354
2.5077856 -0.75755519 0.76872134 4279374354
-2.5170822 -0.72165614 0.77489513 4279176975
-2.4979303 -0.74037826 0.7716738 4279242768
-2.4336743 -0.72820479 0.77434695 4279242768
2.4878132 -0.73288065 0.77434713 4278782217
2.5186324 -0.72394294 0.77370554 4279176975
-2.5551765 -0.66419804 0.77651352 4279242768
-2.5377684 -0.68004161 0.77524066 4279242768
-2.4606211 -0.6768809 0.77474374 4279242768
2.4968433 -0.69673091 0.77569497 4278848010
2.5321977 -0.67858511 0.77453864 4279966491
2.5597632 -0.66709089 0.77006799 4278782217
-2.5718648 -0.62459201 0.77507943 4279374354
-2.5457826 -0.6493054 0.77298522 4279242768
-2.488003 -0.62472957 0.7751354 4279242768
2.5345118 -0.62097132 0.76856649 4284374622
2.5752032 -0.62432367 0.77354276 4278783497
2.6046424 -0.60701954 0.76141095 4278848010
-2.6103325 -0.56401622 0.77489376 4279242768
-2.5897641 -0.58472133 0.77555895 4279242768
-2.5145955 -0.57408094 0.77520096 4279242768
2.5413039 -0.57062173 0.77129555 4287273866
2.5824537 -0.58013529 0.77436161 4278783753
2.6113508 -0.57087111 0.77115762 4278592774
-2.6557257 -0.50485939 0.77055961 4279308561
-2.6287427 -0.52599877 0.77412087 4280098077
-2.5503035 -0.50606745 0.77765632 4279308561
-2.5356469 -0.53398705 0.77492267 4279308561
2.5458634 -0.5258438 0.76839846 4289901234
2.5845799 -0.5258159 0.77353501 4278726920
2.6222003 -0.52347529 0.77256244 4278465796
-2.6640544 -0.4701575 0.77370852 4279242768
-2.6442714 -0.48541763 0.77589178 4279308561
-2.5651076 -0.47787878 0.77329886 4279308561
2.5437849 -0.46018171 0.77431577 4278782217
2.5772276 -0.47281337 0.76858896 4281430321
2.613862 -0.47825176 0.77434039 4278543621
-2.7060342 -0.41080338 0.77130598 4279308561
-2.6839087 -0.42829201 0.77404755 4279308561
-2.6026306 -0.40641451 0.77302617 4279308561
-2.588284 -0.43373531 0.77470267 4279308561
2.5241168 -0.41726407 0.7698856 4278720776
2.5736651 -0.42467666 0.773543 4279397906
2.6160662 -0.43063438 0.77545661 4280641061
-2.7196012 -0.37189668 0.77399272 4279374354
-2.6932755 -0.39114055 0.7741096 4279308561
-2.617878 -0.37736908 0.77580851 4279308561
2.49351 -0.37050661 0.78019279 4278205696
2.5363691 -0.36890665 0.7729575 4279657750
2.5663929 -0.3799153 0.77468145 4278478084
2.6190779 -0.37993795 0.7763297 4284900966
-2.7594166 -0.31515786 0.76894629 4279308561
-2.737972 -0.32979962 0.77459168 4279308561
-2.6565409 -0.30373213 0.77555948 4279308561
-2.6409841 -0.33336619 0.77275217 4279308561
2.4696121 -0.32319927 0.77223074 4278216192
2.5226924 -0.32456946 0.77488339 4278215936
2.5714676 -0.34080821 0.77259386 4282410559
-2.8025589 -0.25506487 0.7665984 4279308561
-2.7750409 -0.27544999 0.77353716 4279308561
-2.7465026 -0.29689762 0.77305794 4279308561
-2.6730471 -0.27229482 0.77559698 4279308561
2.438663 -0.27265605 0.7735514 4278216192
2.4877253 -0.27166221 0.77502686 4278216192
2.5125184 -0.28395241 0.77469903 4278216192
-2.8133817 -0.21935052 0.77202344 4279308561
-2.7903345 -0.23396635 0.77569014 4279308561
-2.704071 -0.21320696 0.77673519 4279374354
-2.6920767 -0.23605333 0.77459514 4279308561
2.4319267 -0.21548434 0.77643728 4278216192
2.467941 -0.22596736 0.77497429 4278216192
2.5064471 -0.24995317 0.77539831 4278216192
-2.8576519 -0.16114137 0.76845253 4279374354
-2.8290358 -0.17824322 0.77334821 4279374354
-2.7242715 -0.17473829 0.7728982 4279374354
2.3819754 -0.17153054 0.77292413 4278216192
2.4333646 -0.17282134 0.77506602 4278216192
2.4618902 -0.1820008 0.77517331 4278216192
-2.8684111 -0.12031803 0.77433586 4279769112
-2.8430746 -0.13610558 0.77490383 4279374354
-2.7569988 -0.11239877 0.77867132 4279374354
-2.7446468 -0.13592716 0.77649242 4279374354
2.3832304 -0.11575667 0.77589875 4278544133
2.4144886 -0.1312522 0.77530575 4278937867
-2.9103644 -0.062552698 0.77255338 4279966491
-2.8848658 -0.080687039 0.7747125 4280492835
-2.777776 -0.072832756 0.77478617 4279374354
2.3314984 -0.081488967 0.77748424 4278216192
2.3777061 -0.075825915 0.77568001 4279593493
2.4118729 -0.091457397 0.77225071 4278216192
-2.9197891 -0.027127704 0.77346945 4279440147
-2.8937776 -0.025641568 0.77971244 4284637794
-2.8072369 -0.016725203 0.77231401 4279374354
-2.7945483 -0.040894438 0.770127 4279374354
2.3366904 -0.020980349 0.77533221 4278937355
2.3649483 -0.03381934 0.77510983 4278674951
-2.9150991 0.023557266 0.7724629 4279308561
-2.8851836 0.029830052 0.77062678 4279374354
-2.8285763 0.023922469 0.77599204 4279440147
2.3359559 0.024651162 0.7759276 4278543877
2.3734281 0.031175911 0.77592498 4278216192
-2.9221511 0.080446698 0.77564275 4279571733
-2.8789213 0.074138485 0.77388304 4281611316
-2.8477027 0.069445454 0.77642792 4282071867
2.3378341 0.063013144 0.77532023 4278216192
2.3708465 0.078578748 0.77510965 4278215936
2.4195387 0.077011772 0.7764824 4278216192
-2.9106674 0.11862129 0.77234006 4279374354
-2.8688858 0.12196669 0.77326465 4282137660
-2.8425233 0.13072599 0.77035099 4279374354
2.3828797 0.12009855 0.77633041 4278215936
2.4229217 0.12495333 0.77499121 4278215936
2.4597194 0.14202394 0.77606058 4278216192
-2.9045403 0.18155146 0.77362329 4290822336
-2.8735814 0.16875271 0.77436066 4280953386
-2.8294921 0.17838261 0.77377969 4281677109
2.3924003 0.16047417 0.77227592 4278216192
2.4223783 0.17543012 0.77532828 4278347010
2.474112 0.17794438 0.77199167 4278216192
-2.8750036 0.21957462 0.7738682 4288453788
-2.8161294 0.22072139 0.77448088 4279374354
-2.7926412 0.23814416 0.77481806 4279374354
2.4379826 0.21961068 0.77515972 4278215936
2.4675939 0.22733575 0.77426136 4278215936
2.5132878 0.22870071 0.77775365 4278216192
-2.8564041 0.26057914 0.79847026 4291480266
-2.8145101 0.27066445 0.77309102 4279440147
-2.7758677 0.27732378 0.77487117 4279374354
2.4493847 0.2610625 0.77692854 4278216192
2.4786055 0.27503586 0.77306801 4278216192
2.528394 0.27639988 0.77547979 4278216192
2.5555127 0.29701015 0.7697559 4278216192
-2.7680445 0.32179958 0.77513397 4280492835
-2.7379165 0.33306977 0.77464551 4279374354
2.4912493 0.32143667 0.77637863 4281428529
2.5194125 0.32909179 0.77369547 4278215936
2.5726819 0.32479465 0.77260149 4278216192
-2.7558527 0.36461845 0.77468121 4286019447
-2.7209558 0.37562931 0.77437204 4279769112
-2.6974447 0.39819306 0.77468175 4279440147
2.5366099 0.37464848 0.77622992 4278544133
2.5729845 0.37262216 0.77489114 4278216192
2.6100857 0.38835415 0.77883071 4278216192
-2.7112467 0.41350016 0.77523988 4280361249
-2.6840253 0.42963058 0.77479982 4279374354
2.5489526 0.4050363 0.78497243 4278216192
2.5744953 0.42280269 0.77554286 4278278913
2.60429 0.42881379 0.77502286 4278216192
-2.6681864 0.46977651 0.77442604 4279440147
-2.64644 0.48808935 0.77364123 4279440147
2.5833814 0.47023904 0.77452302 4278216192
2.6122406 0.4815625 0.77395225 4278278657
-2.6571574 0.50932437 0.76903361 4279440147
-2.6294634 0.52538729 0.77394974 4279769112
2.5388911 0.53295916 0.77395147 4278608133
2.5776427 0.52317947 0.77678639 4278216192
2.6180668 0.52321523 0.77477884 4278927372
-2.6132958 0.56600046 0.76994085 4279374354
-2.5910044 0.58753592 0.7764492 4279440147
2.5183668 0.57111794 0.77448153 4278848010
2.5850294 0.58207768 0.77406681 4278593798
2.6078434 0.56547797 0.77484006 4278782474
-2.6006813 0.60651791 0.76198775 4279505940
-2.5722611 0.62580901 0.77266306 4279440147
-2.5398741 0.63892776 0.77652788 4280887593
2.4849193 0.63329959 0.77754283 4278848010
2.5267842 0.62674254 0.77613014 4278461700
2.5718584 0.62201905 0.77180481 4278784265
-2.5549297 0.65976566 0.77309263 4279440147
-2.5326166 0.6771726 0.77498507 4279637526
2.4698191 0.68300843 0.77454895 4278848010
2.5338304 0.67883778 0.77403301 4278847754
2.5549223 0.65693939 0.76858604 4278848010
-2.5129852 0.72107118 0.77552611 4279440147
-2.4897008 0.728306 0.7763024 4279834905
2.4347942 0.7264989 0.77378362 4278848010
2.4856017 0.73100948 0.77347076 4280558628
2.5145922 0.72527808 0.7741788 4279242768
-2.4772635 0.77258486 0.77546281 4279769112
-2.4465461 0.79377997 0.77499121 4280098077
2.395278 0.79999375 0.75816512 4278848010
2.4238837 0.77717495 0.77493113 4278848010
2.4809721 0.77564251 0.77306163 4279176975
-2.5076642 0.80655783 0.77887011 4279505940
-2.4656193 0.81741971 0.77580315 4279571733
-2.4365318 0.82937604 0.77459723 4280295456
2.3822091 0.82425743 0.77978045 4278848010
2.4358873 0.83389962 0.77468419 4278848010
2.4672134 0.82199067 0.77323312 4278848010
-2.4687271 0.87203854 0.77591115 4279505940
-2.419153 0.87177974 0.77366626 4280098077
-2.3948886 0.88680625 0.77623791 4279505940
2.3762193 0.88010174 0.77449244 4278848010
2.4249456 0.87123835 0.7745809 4278848010
2.4681838 0.8821426 0.77526689 4278848010
-2.4508867 0.90203553 0.77745593 4279505940
-2.4158981 0.91946369 0.77514696 4280098077
-2.3820384 0.93073976 0.77596498 4279703319
2.3836668 0.93205577 0.77581716 4278848010
2.4172199 0.91884273 0.77569783 4278848010
-2.409436 0.96988297 0.77711964 4279505940
-2.3680451 0.97317946 0.77462566 4279966491
-2.3419855 0.98335195 0.77318317 4279440147
2.341743 0.97418773 0.77472061 4278848010
2.3687437 0.97394276 0.77475685 4278848010
2.410296 0.97765774 0.77856511 4278848010
-2.366318 1.0226095 0.77828622 4279505940
-2.328162 1.0271673 0.77306688 4279769112
2.3369746 1.0322061 0.77564979 4278848010
2.3712566 1.018041 0.77554715 4278848010
-2.3534112 1.0632071 0.77548355 4279505940
-2.3180125 1.0729102 0.77354962 4279440147
-2.2891245 1.0820724 0.77365088 4279571733
2.2984576 1.0962394 0.77390945 4278848010
2.3194897 1.0754423 0.77450407 4278848010
2.3580699 1.0638427 0.77361995 4278848010
-2.3173571 1.1230024 0.77224916 4279505940
-2.2756546 1.1264704 0.77261549 4279637526
-2.2491853 1.1420411 0.77721441 4279505940
2.2844479 1.1296821 0.77413154 4279242768
2.3142669 1.1183903 0.77248758 4278848010
-2.2701497 1.1687442 0.77277964 4279440147
-2.2344244 1.1800929 0.77212793 4279440147
2.2437942 1.1914785 0.77323371 4278979596
2.2675195 1.1725109 0.7741406 4278979596
-2.2616899 1.2180823 0.77386004 4279505940
-2.2232289 1.2267994 0.77178454 4279505940
-2.195971 1.2363094 0.76735425 4279505940
2.2285085 1.2254028 0.77479935 4278979596
2.2577841 1.2194499 0.77933401 4278848010
-2.2165632 1.2659278 0.77205777 4279703319
-2.1845119 1.2815335 0.76908916 4279505940
2.1897457 1.2862482 0.77413946 4279308561
2.2146618 1.2690449 0.77524394 4280558628
-2.2072227 1.3105488 0.77468294 4279571733
-2.1707749 1.3254849 0.77499098 4279505940
-2.1423106 1.3307307 0.75705421 4279571733
2.1317022 1.340681 0.79248935 4278848010
2.1729109 1.3249722 0.77479392 4280361249
2.2060297 1.314718 0.77612209 4278848010
-2.1632466 1.3736547 0.77423948 4279505940
-2.1350191 1.3751391 0.77185112 4279505940
2.0966566 1.3985096 0.77893883 4278848010
2.1309683 1.3758762 0.77587014 4279111182
2.1636331 1.3677647 0.77348453 4279834905
-2.1172278 1.4209952 0.77404034 4279505940
-2.0968142 1.4423381 0.77547002 4279571733
2.0872719 1.4320555 0.77450287 4278848010
2.1167428 1.4235166 0.77445722 4278848010
2.1524029 1.403214 0.77090937 4278848010
-2.1145847 1.467536 0.77874589 4279571733
-2.0795703 1.4777852 0.77385545 4279571733
2.0458241 1.4823651 0.77318424 4278848010
2.0789587 1.470379 0.77511239 4278848010
2.1127453 1.468646 0.77538007 4278848010
-2.0651748 1.5200984 0.77462691 4279571733
-2.039865 1.5331925 0.77545971 4279571733
2.0338042 1.5298753 0.77452785 4278848010
2.063797 1.5200517 0.77684742 4278848010
-2.056314 1.5655328 0.77201158 4279571733
-2.0235219 1.5760779 0.7752077 4279834905
-1.9990978 1.5901303 0.77438378 4279571733
1.9868635 1.5796169 0.77502447 4278848010
2.0231776 1.5736413 0.77431583 4278848010
2.0562842 1.5618089 0.77808625 4278848010
-2.0124266 1.6197563 0.77535963 4279637526
-1.9863213 1.6297966 0.77566618 4279505940
1.9473734 1.6447527 0.77625704 4278848010
1.9792418 1.6278162 0.77595425 4278848010
2.0111451 1.6177158 0.77499026 4278782217
-1.971369 1.6725439 0.77368259 4279505940
-1.946345 1.6860398 0.7754674 4279571733
1.9318755 1.6813942 0.77630174 4278848010
1.9703269 1.6733041 0.77366382 4281150765
-1.9629726 1.713992 0.77667516 4279505940
-1.9329096 1.7271196 0.77536339 4279703319
1.8926237 1.7350658 0.77351713 4278848010
1.9325309 1.723429 0.77540094 4280427042
1.9629089 1.7158992 0.76877457 4285164138
-1.9163976 1.7736938 0.77385563 4279703319
-1.8952463 1.7833848 0.77449834 4281677109
1.8765169 1.7827693 0.77275276 4278848010
1.9170614 1.7721945 0.77642947 4281874488
-1.9065633 1.8173419 0.77283704 4279571733
-1.8814898 1.8269976 0.77568203 4279505940
1.8399891 1.8218874 0.77217722 4278848010
1.8732364 1.8162819 0.77631652 4278848010
1.9048547 1.8116778 0.77912301 4284900966
-1.862745 1.8693914 0.77493131 4279505940
-1.8434689 1.8882062 0.77368462 4279571733
1.8388306 1.8878478 0.77490085 4278848010
1.8555108 1.8590168 0.78018618 4278848010
-1.8539908 1.9057448 0.77263498 4279571733
-1.8270739 1.9260534 0.77366793 4279571733
1.8168609 1.9261425 0.76892501 4278848010
-1.8097333 1.9641471 0.77699649 4279571476
-1.7818011 1.9862596 0.7745381 4278924299
-1.7265468 1.9914347 0.77397031 4278280449
-1.6775788 1.9915078 0.77614856 4278215936
-1.6262263 1.9897506 0.77488625 4278216192
-1.5717853 1.9913167 0.77402478 4278216448
-1.5240369 1.9916523 0.77594489 4278283521
-1.4756961 1.9915128 0.77500033 4278285057
-1.4258442 1.9921037 0.7740739 4278286337
1.3945951 1.9939685 0.76160067 4278216192
1.4229076 1.9939895 0.76609993 4278216192
1.4756689 1.9865885 0.7708379 4278216192
1.5220952 1.9797915 0.7723614 4278216192
1.5733758 1.9831856 0.76670015 4278216192
1.6232628 1.9796143 0.76866382 4278216192
1.67299 1.9808139 0.76620728 4278216192
1.7250845 1.9739925 0.769131 4278342657
1.7800965 1.9771199 0.77270734 4281217582
1.8213819 1.9631364 0.7743808 4283650899
1.8606961 1.9586499 0.77562118 4284900966
-1.7752024 2.0164037 0.77379483 4278799113
-1.7223178 2.0009348 0.77383006 4279505940
-1.672361 2.0009644 0.77382797 4279248656
-1.6244452 2.0097029 0.77279687 4278217216
-1.5724875 2.005903 0.77455306 4278216448
-1.5230148 2.0063546 0.77306974 4278216960
-1.4747275 2.0054431 0.77361715 4278217472
-1.4231968 2.0047889 0.77546889 4279400467
-1.3809969 2.0285997 0.77422494 4278944523
1.3789414 2.0279453 0.77389979 4278347522
1.4289532 2.0133111 0.77436185 4278215936
1.4728895 2.0061769 0.77504969 4278215936
1.5243607 2.0060422 0.77575988 4278215936
1.5747715 2.0064392 0.77380651 4278215936
1.6259758 2.0055873 0.77372313 4278216192
1.6750612 2.0060339 0.77404869 4278216192
1.7255113 2.0052905 0.77338845 4278216192
1.7631171 2.005161 0.77361101 4278406915
-1.3613597 2.0681472 0.77492511 4278486021
-1.3424371 2.0854161 0.77498186 4278355970
1.3429247 2.0874197 0.7746225 4278215936
1.3606538 2.0649796 0.77459103 4278281472
1.4211025 2.0748298 0.77672023 4278216192
-1.324833 2.124691 0.77465808 4278488324
1.3234072 2.1244211 0.77410376 4278215936
1.3778394 2.1337378 0.76769805 4278216192
1.4017636 2.1100767 0.77662903 4278216192
-1.309335 2.1630569 0.77505267 4279079181
-1.2889204 2.1805568 0.77454317 4278949131
1.2888756 2.1816254 0.77532816 4278215936
1.3143278 2.1682069 0.77051443 4278215936
1.3648249 2.1774011 0.77471793 4278216192
